ply
format ascii 1.0
comment Created by Open3D
element vertex 1930
property float x
property float y
property float z
end_header
47.7443 -54.5822 925.895
49.1332 -54.2874 926.759
50.6025 -54.2782 926.029
52.3711 -54.0408 925.579
53.7744 -53.3441 926.641
50.8247 -54.6715 924.517
51.3861 -55.2413 922.816
47.9029 -55.1492 924.271
48.2181 -55.9595 922.587
46.7122 -56.4912 921.815
49.5729 -55.2515 923.586
50.351 -53.9597 927.709
51.3175 -53.6384 928.907
52.4459 -53.1788 929.977
53.4928 -52.596 931.007
52.8489 -53.4236 928.191
47.6994 -54.1702 927.521
47.7327 -53.7975 929.3
49.7687 -53.6833 929.453
49.7068 -53.2638 931.07
66.153 -15.0906 856.807
40.6625 -49.9864 858.282
39.107 -50.9064 858.402
63.0978 -48.787 896.071
44.5818 -18.875 894.325
58.4099 -1.58949 859.269
7.28908 -50.3819 859.004
46.5973 -51.8663 900.719
46.2843 -51.0119 899.084
47.7885 -51.6047 899.679
49.2137 -52.1042 900.324
49.0591 -51.4352 898.657
48.7633 -51.0751 896.949
48.6399 -51.1161 895.231
49.9369 -51.5182 894.184
51.6459 -51.4695 894.947
52.0453 -51.3525 896.836
50.4459 -51.3513 897.633
-4.00464 -49.5137 863.523
81.4264 -32.2146 855.897
66.238 -12.2887 856.733
5.53114 -52.5667 888.274
26.4497 -39.5318 909.109
25.7204 -39.7615 910.549
25.3418 -38.2032 910.692
25.4245 -36.4827 910.145
24.6348 -37.0567 912.059
24.1622 -37.7457 914.034
24.1458 -35.8945 913.478
23.9219 -38.4028 915.999
23.6525 -36.5302 917.584
24.4759 -39.7825 914.118
23.9677 -39.5524 917.642
26.3327 -36.0095 908.592
27.3534 -37.3903 907.321
28.6383 -37.3332 905.75
27.2044 -34.8771 907.393
27.4574 -32.5624 907.249
28.7594 -30.9262 905.866
28.6298 -28.9083 906.444
30.4369 -26.9338 905.116
27.6115 -28.0879 908.172
26.4292 -31.6886 908.824
24.3717 -41.4247 917.72
27.3012 -26.472 909.79
26.6157 -26.1028 911.686
24.83 -43.0048 918.49
25.1316 -43.7108 920.218
25.1716 -43.3675 922.144
25.9916 -30.0978 910.114
25.2133 -29.7659 912.101
23.6708 -36.5609 920.273
23.8573 -37.3932 922.202
25.4601 -34.7447 910.016
24.928 -33.4983 911.273
25.74 -33.0705 909.696
24.7127 -32.0972 912.265
24.4492 -31.1902 913.632
24.1016 -31.0744 915.535
24.3011 -29.4971 916.552
23.8981 -32.9145 915.325
23.6831 -34.6581 916.64
23.898 -34.5794 914.732
24.9094 -41.7957 914.579
26.8765 -24.7155 912.947
27.9013 -36.0373 906.541
28.5749 -24.6073 909.159
29.8724 -23.4574 908.222
31.3171 -22.2937 907.371
30.6617 -24.1135 906.549
28.9752 -23.0429 910.293
29.8001 -21.5845 910.908
31.274 -20.4092 910.016
32.8762 -19.4468 908.904
30.3024 -25.6473 905.915
29.0245 -27.0356 906.708
31.8725 -23.1347 905.904
33.0265 -23.1739 904.631
33.1045 -25.0137 903.436
33.9024 -26.1 901.957
33.5772 -28.0502 900.579
32.4351 -29.2583 901.821
32.8419 -28.5266 898.671
32.1431 -27.081 897.286
31.8014 -26.1123 904.165
35.2051 -25.2002 900.791
32.7043 -21.7366 906.189
34.0481 -20.8303 905.564
34.3971 -19.5574 906.612
35.7268 -18.315 906.724
36.8255 -18.3618 905.459
37.5632 -17.1609 906.295
30.7654 -26.1592 896.347
28.9558 -26.6412 896.2
28.8206 -24.94 895.61
28.7173 -28.4658 896.73
29.9593 -29.9908 897.438
26.9857 -27.6035 896.193
25.5646 -26.5676 895.739
25.5295 -28.7351 896.3
25.0636 -30.5333 896.563
25.43 -24.7254 895.102
24.0649 -27.4638 895.801
24.6173 -23.1578 894.347
25.3294 -21.2409 893.504
22.5073 -28.0329 895.73
21.9263 -30.1468 896.034
28.0119 -23.2771 894.844
27.5111 -21.4911 893.941
23.0331 -24.4498 894.662
22.1984 -26.0891 895.13
20.5916 -25.4622 894.645
18.6427 -25.5974 894.314
21.3273 -23.8605 894.134
20.2091 -22.6138 893.346
18.1556 -23.1054 893.181
21.7413 -21.6899 893.144
26.8627 -20.12 893.1
27.8433 -18.7814 892.406
25.4564 -19.415 892.445
26.6854 -30.9581 896.862
27.4827 -32.6515 897.191
28.4017 -30.5908 897.07
28.7172 -34.1323 897.668
30.3105 -33.5677 898.366
30.8568 -35.0268 898.858
30.7936 -31.7327 898.298
31.9681 -31.6565 899.996
31.539 -32.7649 901.744
31.302 -34.571 902.148
31.0392 -31.3962 903.333
24.1353 -32.2524 896.657
21.8221 -20.2912 892.354
22.2108 -18.9095 891.547
20.8296 -18.0602 890.707
24.0184 -18.5173 891.614
23.5918 -21.4058 893.317
29.1456 -21.9492 894.373
30.8641 -22.2274 894.674
31.8313 -23.394 895.296
34.1609 -23.1647 903.512
20.4128 -19.5527 891.606
23.3248 -33.7201 896.619
34.5336 -18.5493 907.894
28.2525 -26.3574 908.206
24.0729 -40.3524 919.204
24.1467 -40.4754 920.898
24.5836 -41.7642 922.057
23.9022 -38.8404 921.323
-11.3698 -45.3964 880.306
-11.8082 -43.9761 881.015
75.6164 -20.2393 909.956
77.1508 -20.7043 910.248
78.6457 -21.4772 910.177
87.8709 -19.6678 866.54
88.2132 -20.4647 864.848
46.7694 -57.8868 910.043
48.4817 -57.6036 909.287
47.7383 -58.4394 911.354
46.5081 -58.7753 912.927
47.3128 -59.0042 914.363
46.4195 -58.9202 915.779
48.7814 -59.0054 914.615
50.3983 -58.7617 913.695
24.3313 -17.1227 890.756
23.1572 -16.2326 889.982
23.008 -14.9155 889.159
21.6639 -16.6144 889.913
20.9566 -15.3914 888.959
24.5038 -28.4161 919.845
24.9753 -26.9698 918.735
24.4282 -28.614 918.03
24.197 -29.8978 920.73
35.5691 -15.5913 918.35
38.5538 -54.1182 923.824
39.2896 -53.9512 925.156
39.6747 -54.9656 922.479
40.8886 -54.2938 925.37
41.958 -54.9447 924.126
38.2969 -53.3419 926.148
15.4618 -65.1711 878.122
81.1851 -23.3905 911.147
81.5993 -24.7984 909.861
80.4728 -23.9553 908.787
47.022 -68.1099 879.583
89.1838 -29.6901 875.014
89.3665 -31.6608 875.076
42.7988 -71.3928 862.461
60.1596 -62.3373 878.595
22.1068 -14.0065 888.457
22.3555 -12.6871 887.877
20.7429 -12.5131 887.3
19.4125 -13.5221 887.422
23.2756 -11.5051 887.662
23.795 -10.0139 887.249
24.6493 -8.71403 887.053
24.0247 -7.33962 886.235
22.239 -10.0553 886.713
20.7006 -10.6338 886.394
22.4551 -7.56454 885.713
69.729 -46.9875 914.666
31.4046 -27.994 903.731
53.6429 -51.3289 896.799
55.2162 -51.2571 897.754
56.7622 -50.9865 898.017
54.6778 -51.6005 899.308
55.1513 -51.9314 900.796
56.9012 -51.5568 901.104
57.0322 -52.0907 902.871
55.48 -52.383 902.233
57.1733 -52.7235 904.613
53.3495 -52.0392 900.254
55.6944 -53.8601 905.507
54.0742 -54.1318 904.868
54.0768 -53.2018 903.143
31.3503 -28.9244 897.673
54.7298 -41.0449 940.971
56.2926 -40.0531 940.592
56.5557 -38.1813 940.715
55.1958 -36.9705 941.308
53.5359 -37.3058 941.796
67.6034 -13.5733 882.936
66.1082 -13.5151 883.631
68.8044 -14.4015 883.278
68.3774 -15.4255 884.738
61.7564 -47.9281 921.898
63.1362 -46.5843 921.592
63.9581 -45.3251 922.843
63.3065 -45.6131 924.464
64.424 -44.3168 924.764
65.1682 -43.0532 926.615
65.646 -42.9277 924.874
62.0586 -46.7568 924.954
25.9649 -52.2133 891.643
24.2978 -51.273 892.068
26.293 -53.6629 890.647
24.9187 -54.6641 889.642
23.1157 -52.2161 891.145
23.3652 -53.7502 889.989
26.7551 -54.9556 889.827
-11.2835 -45.1677 883.159
-10.304 -46.5198 884.901
-9.30434 -47.6533 885.74
-8.68642 -47.6968 887.166
-10.5455 -45.5044 886.049
-10.4432 -44.6717 887.723
-11.1941 -44.0801 886.026
-9.32841 -45.9377 888.685
83.5034 -41.3651 882.078
82.39 -40.494 883.466
83.6522 -39.535 882.423
83.7691 -37.9244 882.572
48.7005 -64.2198 881.189
32.9756 -46.3834 858.475
31.2104 -46.3219 858.517
32.7297 -50.668 909.505
-6.9865 -50.5723 884.968
-6.17427 -50.281 886.806
-8.36979 -19.2388 876.587
-8.35877 -19.4562 874.698
32.7491 -2.79881 858.731
-8.70473 -43.1911 867.421
63.6396 -50.0884 892.223
62.985 -51.2022 890.657
64.1986 -51.714 889.119
65.2119 -52.4964 887.465
64.614 -50.5493 890.596
66.2565 -49.9062 890.374
3.62523 -9.50621 877.616
5.20917 -8.97351 878.021
33.1897 -44.6953 858.405
68.5973 -52.7628 885.157
69.284 -53.6763 883.725
70.9273 -53.0143 883.462
71.0367 -54.1271 882.17
67.0039 -53.5492 885.153
65.9116 -53.1773 886.214
31.7114 -20.94 908.451
66.6901 -49.9329 909.623
64.873 -50.5789 909.694
46.7822 -15.6384 927.578
-1.10477 -29.4305 859.458
-2.44637 -30.5452 859.809
-2.89512 -29.0124 860.041
-3.28486 -27.394 860.403
-4.37806 -28.6367 860.907
-5.24709 -30.1535 861.416
-6.20457 -28.8229 862.538
-2.07439 -26.2333 859.972
-2.16312 -24.5313 860.286
-3.34495 -23.7648 861.244
-4.51965 -24.944 861.846
-4.70066 -23.3023 862.692
-5.60201 -26.2555 862.498
-4.42126 -26.6552 861.281
48.9634 -67.4278 879.134
49.5676 -68.6498 877.945
48.3789 -69.8729 877.372
29.2465 -43.6791 858.521
67.9597 -36.2002 927.993
67.712 -37.8474 927.787
67.1139 -39.0491 928.659
67.0197 -40.1323 927.262
66.6929 -38.6259 930.441
66.8452 -36.6586 931.26
65.9965 -40.147 930.897
65.3363 -40.2734 932.483
65.4547 -41.5707 930.126
65.8981 -41.6496 928.235
64.3702 -41.5354 933.29
63.6659 -41.3005 934.82
63.7588 -42.9122 932.46
64.1834 -43.0444 930.616
63.3507 -44.2635 929.463
62.5118 -44.1299 933.078
63.8022 -39.7321 935.538
64.6643 -38.4445 934.809
62.7152 -39.3366 936.858
61.7485 -40.3381 937.464
62.4391 -37.7738 937.372
60.8984 -36.7289 938.56
63.4508 -36.5459 936.545
64.5539 -36.8442 935.306
65.3451 -35.3769 934.394
66.2468 -35.5948 932.859
65.4234 -38.7756 933.428
62.5715 -42.4638 935.542
61.9383 -44.0088 934.811
61.7199 -41.9208 936.882
64.9129 -33.8055 934.97
60.554 -42.9114 937.453
60.5569 -39.8599 938.451
59.8273 -38.2882 939.117
61.9871 -45.3659 930.094
66.1508 -37.3644 932.588
62.1704 -36.2978 937.677
60.2514 -35.0683 938.981
63.928 -44.1691 927.672
66.7942 -34.4884 931.805
63.0949 -35.0859 936.916
51.4026 -71.5972 870.389
50.0917 -71.7884 871.905
52.6365 -53.838 903.666
17.767 -65.6133 861.359
19.1443 -65.239 860.485
20.3466 -66.2727 861.053
20.3844 -67.2859 862.455
21.7583 -68.0698 863.102
21.9723 -66.2234 860.486
22.4177 -64.8282 859.466
21.4468 -63.6789 859.138
19.8407 -63.902 859.478
66.6619 -32.8151 932.08
60.7684 -22.1621 857.059
41.4864 -72.901 867.552
39.3942 -20.1552 935.142
40.0633 -21.0972 936.648
13.1843 -37.0926 894.717
58.4909 -51.4044 893.002
56.4856 -51.8466 892.818
55.2269 -51.5212 894.24
55.625 -52.536 891.547
55.0643 -53.5701 890.039
53.4291 -53.9787 889.792
54.8106 -54.6129 888.795
54.4506 -52.028 892.847
52.7284 -52.2006 892.609
52.4417 -53.2071 890.904
50.9952 -52.7387 891.691
56.6784 -53.0808 890.433
58.361 -52.7881 890.397
58.2149 -53.8297 888.918
59.6125 -53.9184 888.327
60.9955 -53.0881 888.915
61.359 -51.9935 890.372
62.172 -53.5534 887.734
53.2461 -39.3224 941.687
51.9182 -38.218 942.084
50.2351 -38.0061 942.329
48.7056 -36.9342 942.506
50.2853 -36.3569 942.415
50.7004 -34.7439 942.369
47.0816 -37.3846 942.495
49.6371 -24.9641 940.474
47.9962 -24.8866 940.541
47.0222 -25.9698 941.019
56.3924 -0.352272 859.999
55.43 -1.13328 858.786
49.1784 -31.3488 942.267
47.5517 -32.0607 942.412
-8.53632 -50.8176 876.271
67.0561 -19.0154 907.823
68.2685 -18.9427 909.057
30.9998 -43.4462 896.709
24.8363 -28.1415 915.295
25.1522 -28.3158 913.593
25.4447 -26.4042 915.55
26.2284 -25.0276 914.827
25.498 -25.8715 917.134
25.8168 -27.4435 912.391
67.8866 -38.6742 926.34
79.7423 -21.8028 911.24
58.961 -19.8856 928.079
35.4162 -33.1932 940.688
37.2931 -33.8602 941.238
37.4208 -35.7753 941.287
36.771 -31.9336 940.912
2.83753 -45.3639 859.178
40.5206 -16.1597 926.379
39.6205 -15.9353 924.918
38.0173 -16.5666 925.372
41.395 -15.5964 925.187
37.511 -17.2182 926.894
-0.104125 -54.2736 862.557
87.1251 -38.4775 857.453
33.9379 -42.554 900.852
33.4274 -41.972 899.187
32.2186 -40.8131 898.611
32.6494 -41.9269 902.295
40.3775 -12.5989 911.374
39.4066 -12.7477 913.183
37.9419 -13.7272 912.938
36.4937 -14.7419 913.215
35.7479 -15.6195 912.062
34.7069 -16.7169 911.333
33.2927 -17.7251 911.827
32.8348 -17.6773 913.349
31.8017 -18.8273 912.48
32.4206 -17.7544 915.109
32.3049 -17.8085 916.902
33.503 -17.0162 918.11
33.7517 -16.7271 914.439
35.0394 -15.7832 913.744
34.7761 -15.8535 915.487
35.8099 -15.1408 916.691
34.5491 -16.1151 917.152
36.9032 -14.2953 915.833
34 -17.6971 910.358
38.2773 -13.4781 916.407
38.7171 -13.6168 918.039
37.6001 -14.5051 918.977
38.4926 -14.5931 920.407
37.5112 -15.5294 921.669
60.0139 -16.7877 918.205
60.2481 -6.03832 877.924
58.8827 -6.15568 878.702
57.2152 -5.94961 879.233
10.0977 -5.20789 866.957
11.5079 -4.5476 867.078
29.7589 -40.819 937.565
48.075 -14.4223 904.227
47.8807 -15.4591 902.785
47.8574 -16.3927 901.34
49.4299 -15.018 903.314
50.892 -15.3708 902.818
50.8685 -16.3266 901.082
51.8634 -16.8119 900.036
51.7778 -17.3389 898.368
53.2159 -17.1851 899.064
54.6941 -17.1478 899.778
54.5315 -17.5093 898.022
55.7831 -17.7366 897.043
57.2159 -17.9438 898.231
58.6733 -18.3814 897.417
58.9763 -18.2954 895.636
57.6442 -17.8046 894.678
57.0429 -17.2196 893.086
55.8718 -16.4379 891.644
56.0898 -17.6467 895.077
54.1313 -16.5173 892.017
53.4385 -17.243 893.844
57.5394 -16.4835 891.367
13.8366 -47.2351 859.031
34.4879 -71.6733 878.514
32.8451 -71.9037 877.624
31.3446 -71.2135 878.694
30.8102 -71.7919 877.085
30.6063 -72.2105 875.471
31.8964 -72.629 874.499
29.8963 -72.3567 873.808
33.4993 -72.6797 875.298
32.9613 -72.9286 873.231
29.1411 -71.5138 876.794
27.541 -71.3887 875.841
28.1022 -70.8168 877.918
29.0304 -70.3244 879.467
27.8638 -71.8169 874.18
50.8453 -51.0469 935.357
51.2571 -51.913 933.829
49.4147 -51.908 934.213
20.5702 -23.0966 858.647
38.0208 -5.77822 885.367
38.222 -7.42855 885.91
39.5359 -5.7248 884.781
41.0509 -6.03202 884.426
40.0941 -4.24978 884.089
41.3892 -7.67731 885.041
40.1057 -8.42379 885.751
41.0374 -9.74351 886.335
42.6812 -10.3695 886.568
-12.8252 -32.8815 884.481
-12.5853 -31.5484 885.499
44.0565 -22.5326 857.808
43.1335 -21.1041 857.895
29.7659 -47.1499 858.586
28.0666 -46.9844 858.641
27.2113 -45.4595 858.622
25.3942 -45.3985 858.694
27.3944 -48.6563 858.739
28.1532 -50.5565 858.805
24.9764 -43.7466 858.69
26.1577 -42.508 858.649
24.8138 -41.5673 858.716
23.1316 -41.2205 858.778
25.0867 -39.9533 858.734
23.5364 -44.3176 858.743
22.2818 -43.1313 858.779
20.5734 -42.8311 858.831
22.2438 -45.478 858.803
22.6252 -47.411 858.854
20.6167 -46.3824 858.881
30.6398 -48.5553 858.627
30.0054 -50.3468 858.734
31.7422 -49.9099 858.667
33.2391 -50.8693 858.661
34.5505 -51.744 858.648
33.3652 -49.0401 858.583
36.3258 -51.3937 858.56
22.0217 -39.909 858.838
22.3492 -38.2842 858.856
24.2336 -37.7805 858.792
20.3786 -39.8741 858.88
19.4177 -41.1813 858.877
18.9475 -38.9185 858.93
24.6627 -47.0674 858.772
25.3388 -48.461 858.811
17.6897 -41.7751 858.903
16.1774 -40.6685 858.95
16.565 -38.7332 858.984
19.5338 -37.0913 858.95
21.1629 -36.5298 858.915
47.0375 -52.9801 902.289
-4.42757 -52.383 884.986
-5.22717 -52.5871 883.617
-2.96503 -53.0621 885.191
-2.21166 -54.069 884.155
-2.78492 -54.6202 882.689
-0.672159 -54.4843 884.594
0.0302221 -53.8645 885.813
-0.768601 -52.6278 887.108
-4.25237 -53.8645 882.374
1.00989 -53.0977 887.091
39.997 -17.7375 930.966
61.8446 -25.9922 935.961
90.7553 -35.1684 864.116
90.3795 -36.186 862.681
67.9793 -43.1413 901.226
66.8178 -44.3677 900.427
51.1349 -64.4726 880.195
52.2815 -63.4236 880.634
53.7137 -63.6955 879.921
53.8302 -65.1303 878.756
52.153 -66.3257 878.557
7.90431 -33.3347 894.657
28.4521 -71.774 869.059
49.0215 -67.5202 858.479
47.3056 -67.6773 858.529
45.8062 -66.3001 858.096
75.1192 -33.7445 856.272
75.8203 -32.1332 856.207
74.3209 -30.7931 856.298
76.0292 -30.3255 856.174
77.7367 -29.7223 856.06
78.8781 -28.2659 855.971
76.5522 -28.5629 856.132
75.8167 -26.8966 856.185
77.1949 -25.5222 856.101
73.0776 -29.6169 856.383
31.6746 -16.4523 858.459
24.3674 -34.3401 912.673
43.656 -58.349 916.481
68.8205 -19.6499 907.192
-12.9283 -32.6168 882.842
-12.9281 -32.0586 881.448
-12.8634 -31.7829 879.827
-12.6932 -31.3796 878.169
-12.6374 -32.6846 877.216
-12.9392 -33.4314 880.215
-12.6844 -30.1336 879.336
-12.4069 -31.4944 876.185
-12.1288 -29.9479 875.533
-11.5524 -28.7399 873.8
-12.1751 -28.8504 876.629
-11.7924 -28.2267 875.22
-11.3062 -27.1488 874.044
-10.7327 -25.8756 873.005
-10.2725 -26.1213 871.268
-10.3926 -27.7412 870.58
-9.59625 -24.7978 870.396
-10.9855 -28.9171 871.705
-9.79181 -28.0956 868.876
27.8232 -53.0318 891.345
28.4137 -9.49985 888.251
81.9961 -55.1959 864.461
2.87916 -18.7753 888.463
1.39198 -19.5294 889.018
0.548481 -20.7082 890.121
-10.7665 -36.4203 893.014
52.7604 -16.1602 928.098
29.0818 -47.1589 928.195
71.1051 -40.2725 902.537
70.808 -41.9636 902.769
71.9512 -42.868 903.53
72.0653 -44.3006 904.164
73.5771 -42.3792 903.859
75.1227 -42.9333 904.565
74.3433 -40.866 903.71
73.2586 -34.4966 920.757
25.7767 -0.437155 881.081
7.34249 -6.16736 871.867
83.536 -26.6169 913.535
67.1754 -64.4479 868.848
2.72068 -53.5845 886.924
3.99632 -54.5118 886.241
5.66625 -53.9496 887.034
-5.63012 -16.9898 881.082
15.4195 -46.5608 893.146
55.9432 -24.8988 939.047
73.4035 -32.6166 920.577
34.627 -53.0275 921.205
11.8206 -4.24249 871.66
46.9242 -2.07127 880.439
47.3403 -3.56766 881.168
49.2323 -3.76524 880.564
22.9413 -69.7437 867.765
50.1987 -0.767548 858.526
37.7626 -55.8943 915.45
39.1414 -56.6506 915.834
-12.1167 -36.3949 874.35
-12.488 -36.025 876.239
-11.7105 -36.855 872.84
59.4921 -18.3842 921.959
78.2485 -57.7677 862.989
76.7235 -58.782 862.913
68.8259 -6.62537 873.205
67.5682 -5.71984 872.617
67.3696 -6.66446 874.382
68.7855 -27.7321 899.745
69.8259 -28.7683 901.143
-9.03576 -24.9362 868.887
63.4407 -64.6695 873.816
51.3785 -41.6397 941.62
50.1895 -14.6463 924.065
73.7493 -48.2072 909.813
74.2179 -47.663 908.194
75.6261 -46.8757 907.771
75.4772 -45.8661 906.453
61.3766 -33.2768 938.203
31.4846 -29.7093 903.125
32.0174 -30.9749 901.847
24.556 -56.2061 888.523
26.0459 -57.1943 888.341
24.7719 -58.0498 887.555
25.1386 -59.5538 886.945
32.3999 -18.2071 920.351
33.6541 -17.607 921.423
35.3762 -16.5439 921.34
26.8787 -45.9765 923.778
26.6671 -45.1353 925.28
25.867 -43.6032 925.447
27.5664 -46.3984 925.388
28.7817 -47.7727 925.506
29.6506 -48.9311 924.341
30.1018 -49.7657 922.459
31.663 -50.9721 922.23
30.6278 -49.3557 925.732
31.2943 -49.3664 927.44
32.5918 -51.8836 920.786
32.2349 -51.9312 919.118
32.6823 -50.1171 928.051
33.729 -51.0425 927.052
77.5078 -31.1999 888.45
78.3232 -33.1937 887.864
77.1089 -32.8252 888.934
76.2941 -30.0288 889.381
74.8453 -29.3146 890.612
74.2365 -27.5358 890.71
73.338 -25.8598 890.904
58.5015 -59.8645 881.887
32.4675 -68.0681 883.31
41.5695 -19.8493 894.468
83.1976 -50.0626 876.561
81.8779 -50.9201 877.193
81.2603 -52.305 876.267
82.0234 -52.6801 874.766
84.6217 -48.9181 875.841
29.862 -31.8564 904.651
28.7576 -32.9737 905.703
29.5132 -34.319 904.72
10.6914 -62.8659 862.069
21.7692 -68.7612 865.128
51.2824 -5.336 857.186
51.6566 -6.97923 857.187
72.7681 -60.0559 872.701
72.636 -6.99592 860.804
70.9108 -6.43442 860.296
74.2199 -8.07955 860.014
47.487 -71.3182 863.059
26.1204 -45.1118 922.694
-6.267 -32.1107 899.829
89.9358 -33.2067 861.144
46.2171 -54.0288 928.238
53.9366 -55.7967 887.668
53.9504 -57.1207 886.327
52.4899 -56.4288 887.328
50.6032 -56.8973 887.242
49.954 -58.3556 886.08
48.9972 -56.7471 887.616
48.1971 -55.6237 888.734
48.4959 -57.9643 886.664
51.323 -59.1422 885.058
52.8975 -58.3807 885.385
51.3505 -55.6368 888.281
51.7547 -54.4936 889.398
50.0348 -54.6433 889.428
68.0622 -40.9245 856.761
28.9403 -51.3885 892.641
89.1022 -40.3674 860.445
5.81965 -51.5833 859.131
19.5293 -26.9298 894.914
19.1735 -28.6072 895.251
17.3866 -29.0343 894.963
16.1201 -28.0532 894.51
16.9383 -26.199 894.169
46.7472 -53.4981 930.427
46.9185 -52.9396 932.159
48.5422 -52.7479 932.633
45.2001 -53.3112 930.802
50.3392 -13.4071 888.279
50.0869 -14.7206 889.537
-9.67088 -42.4893 892.105
-9.97792 -40.6633 892.892
81.678 -27.0285 908.034
81.3726 -28.4235 907.02
16.1739 -4.9805 861.474
17.7489 -4.08549 861.695
16.2674 -3.95447 862.914
41.4598 -72.6267 875.56
39.7319 -72.9715 874.682
70.1656 -40.3189 920.865
63.372 -6.23965 857.371
51.6167 -14.0594 888.814
51.735 -15.1889 890.061
-11.503 -25.5811 877.218
-11.0043 -24.6516 875.855
-10.5356 -24.1319 874.317
-10.1213 -23.7468 873.155
-9.51511 -22.8535 872.196
-11.4516 -26.3189 875.578
34.3097 3.26283 876.392
63.6876 -52.8329 887.896
85.6102 -35.3109 920.147
85.7447 -34.7282 918.013
85.5958 -32.9781 917.391
85.6379 -31.2813 918.674
85.214 -29.8277 917.731
84.7933 -29.9203 915.939
84.2021 -29.8859 914.132
84.5801 -31.3018 914.998
84.7577 -33.0237 915.087
84.1502 -34.1024 913.196
84.7758 -28.3912 916.803
83.9341 -30.8942 912.881
83.8137 -32.4362 911.844
83.5126 -30.2162 911.359
84.567 -35.2597 914.684
85.2149 -35.7628 916.406
83.9505 -22.4999 879.417
83.5612 -20.5895 878.471
4.88645 -43.1885 859.136
77.7348 -9.88391 860.496
53.5699 -59.4586 884.126
3.50443 -8.28871 872.476
32.4489 -16.3913 891.3
30.9877 -16.2179 891.103
29.2746 -16.0755 890.885
28.7018 -14.8136 890.146
30.0243 -17.408 891.765
-7.26619 -48.9285 887.634
90.1536 -40.4877 863.971
43.9172 -6.40356 883.734
42.5479 -5.20773 883.624
43.0788 -3.77983 882.86
41.9737 -2.60149 882.763
-5.60765 -27.0029 896.361
56.3619 -9.62165 883.291
56.2376 -8.31027 881.949
13.3893 -66.425 867.854
40.7632 -64.3256 858.199
41.5254 -62.874 858.18
41.4819 -61.2337 858.278
42.3804 -59.4371 858.306
39.4646 -61.18 858.385
43.1732 -63.5584 858.066
44.6069 -62.5184 858.039
45.3328 -60.9232 858.076
47.1749 -60.6315 857.978
45.9768 -59.4259 858.089
45.3224 -57.8619 858.164
43.6897 -57.8801 858.262
43.2174 -56.2119 858.295
41.5975 -55.3475 858.391
44.2159 -54.7275 858.214
46.504 -56.5503 858.1
48.0734 -57.1446 858.024
39.5328 -55.5193 858.525
40.7857 -56.7808 858.457
40.3606 -58.458 858.461
43.7053 -60.599 858.176
39.1945 -49.0164 901.546
54.1704 -0.113762 875.12
0.271245 -59.8084 872.009
1.08843 -60.3818 873.438
0.368872 -59.7003 875.151
0.276987 -59.2451 876.862
43.1344 -59.5187 886.044
41.3431 -60.1741 885.75
42.3937 -61.2634 884.816
51.6287 -61.3008 882.824
50.8475 -60.3513 883.988
65.9426 -3.33543 868.203
14.4021 -65.3792 876.683
4.92455 -10.5673 880.479
13.4121 -42.7822 894.033
-12.9501 -35.1428 880.682
-10.2819 -42.6511 890.528
-11.1152 -41.4933 889.303
-10.7019 -43.1573 888.887
36.0404 -29.9229 940.259
78.6773 -22.0789 908.743
21.0048 -28.9437 895.67
83.4164 -32.9792 910.103
36.3499 -25.1546 858.08
51.2379 -57.8156 910.509
52.8178 -57.2649 910.312
79.5806 -32.7498 886.722
35.0103 1.58125 862.072
35.9964 2.37651 863.284
19.8269 -35.7483 895.971
81.7558 -41.5167 856.138
50.6343 -46.0803 857.679
49.4361 -16.6433 900.547
50.1653 -8.35478 857.37
48.4966 -7.54761 857.405
48.9079 -9.64522 857.556
41.9457 -64.136 883.439
-6.5778 -51.2565 869.465
36.9567 -48.4522 894.871
38.2903 -49.5219 894.192
75.3737 -47.8914 910.716
-4.73879 -29.8458 899.518
57.8848 -54.8987 916.133
-2.92355 -18.5253 886.63
62.5714 -9.66085 856.803
76.2519 -21.236 907.603
46.7039 -58.2955 886.669
64.6344 -2.38035 864.646
64.9905 -2.59813 866.349
66.1577 -3.12944 864.839
57.2441 -53.3877 906.175
40.1947 -15.0029 922.837
69.7856 -6.7359 859
17.2605 -66.5001 877.734
17.1337 -67.1159 876.223
21.6205 -52.9452 890.26
30.5522 -24.7449 895.789
-10.8364 -40.5323 871.129
-10.7326 -38.9149 870.351
85.8956 -44.28 857.512
66.1645 -4.91847 872.376
60.7478 -18.4325 894.146
60.2925 -17.7542 892.703
61.4571 -17.4436 891.361
63.0838 -18.0002 891.354
63.5742 -19.0727 892.937
71.9654 -13.0307 879.95
71.3358 -11.7963 878.877
41.0465 -13.4084 920.005
8.2491 -12.2208 859.474
33.3337 -24.0495 895.791
25.4081 -52.3216 858.973
26.4681 -51.0746 858.893
29.2655 -26.7633 934.743
57.1 -26.2369 857.196
58.6882 -62.1367 879.437
58.0786 -61.1097 880.724
56.664 -60.5041 881.909
57.1103 -63.0997 879.159
55.2249 -61.5304 881.389
55.2911 -62.7477 880.189
2.11316 -29.2702 896.944
1.75549 -27.6453 895.996
37.2732 -12.1391 888.405
0.635195 -41.6508 859.312
-1.03837 -41.8489 859.623
34.8667 -71.2261 863.103
38.5782 -32.2598 857.892
40.2455 -32.2983 857.836
-3.11825 -56.9468 875.678
-1.83119 -57.7966 876.942
-2.00827 -57.9227 875.339
-1.18046 -58.6685 874.299
-1.89909 -57.3185 878.379
-3.86027 -56.2842 874.299
41.6448 -26.3988 857.781
25.736 -31.3162 935.659
25.8052 -32.5082 937.084
27.0668 -32.3788 938.223
33.5182 -43.5637 902.67
72.5805 -35.7948 893.548
72.9779 -33.8977 893.131
72.5934 -32.0977 893.553
72.5661 -30.1144 893.29
74.009 -33.7807 891.969
74.8908 -32.7407 891.016
74.7769 -30.954 890.962
71.9174 -28.437 893.568
71.1716 -29.4704 894.897
71.2847 -26.8827 893.671
70.1769 -26.4004 894.867
69.6523 -27.5369 896.289
68.9938 -25.7809 896.196
69.3057 -28.2785 897.805
30.8798 -50.5353 913.217
31.5088 -51.3854 914.548
31.8934 -51.8505 916.081
-7.97547 -22.9734 888.758
-6.81915 -23.229 890.524
75.5884 -23.9574 904.795
68.9919 -4.6872 862.829
83.8408 -17.7421 857.893
82.9949 -16.0998 858.257
81.5498 -15.987 857.339
72.7683 -7.90339 859.246
71.9693 -8.72152 858.039
70.1911 -8.55323 857.676
62.4281 -65.4683 859.835
53.9077 -16.1168 902.18
52.325 -16.0679 901.787
13.8682 -19.1844 890.131
82.8088 -43.4881 918.387
47.5452 -19.2367 857.759
37.6541 -58.2798 887.689
10.0223 -61.6264 879.803
15.6018 -52.8425 889.219
69.5315 -45.5968 904.424
68.0907 -45.3095 903.692
66.6658 -46.0261 903.436
65.3652 -46.5084 902.527
65.0454 -46.2404 900.615
67.3092 -44.7038 902.24
62.5689 -13.9611 885.886
85.2249 -32.2691 920.687
27.2617 -39.1795 907.795
60.3719 -21.7745 930.375
61.4385 -22.5261 929.327
-1.09847 -38.8326 859.488
5.54041 -40.226 895.115
37.2046 -54.5525 920.616
23.7668 -32.2589 918.857
23.9715 -30.8201 917.684
23.6529 -33.7647 917.997
23.6091 -35.3331 918.882
50.8726 -50.9443 857.827
33.9153 -61.7315 858.537
13.6158 -24.8444 858.805
36.0495 -72.9983 874.556
85.5057 -15.9129 864.93
27.2989 -22.9425 916.503
28.1308 -22.0532 915.158
27.9946 -22.6444 913.674
55.1044 -56.1971 918.142
55.9972 -55.1826 919.143
55.4958 -54.7035 920.625
53.8675 -55.402 920.906
53.356 -54.8249 922.378
53.6307 -50.4242 935.366
53.5988 -51.3337 933.89
54.3059 -51.7258 932.49
30.4361 -44.7684 858.496
14.3641 -64.0452 878.838
12.7448 -63.4285 878.618
13.8176 -62.9078 879.887
19.2768 -61.1141 883.87
46.175 -30.6491 942.228
6.40126 -56.5845 884.609
-2.54916 -38.0892 902.02
51.4621 -13.4728 857.602
25.7393 -29.9922 930.222
27.0202 -17.5122 891.469
36.6005 -46.118 897.091
2.17746 -57.6383 881.837
52.2345 -71.0892 871.986
38.9421 -72.0399 877.794
35.4475 -16.0296 919.764
77.844 -47.1708 912.099
77.39 -47.191 910.422
59.7181 -0.0298731 865.44
59.751 -0.092923 867.181
61.1812 -0.844518 867.623
58.3221 0.589633 866.066
81.5063 -17.9697 878.275
81.8853 -19.6443 879.417
29.6219 -46.584 908.79
86.5765 -49.9759 867.832
79.0077 -16.9053 879.368
78.926 -18.1086 880.559
70.1503 -50.5999 856.752
68.7407 -51.9302 856.834
70.5526 -52.2366 856.727
43.7688 -15.6431 926.633
42.8181 -16.1457 928.011
29.0585 -31.1863 858.451
40.8233 -12.0598 912.787
42.1976 -11.426 913.504
42.5126 -11.3305 915.097
43.9652 -11.0714 916.17
43.815 -11.6809 918.176
41.8958 -46.9405 939.182
35.2223 -52.3468 925.132
55.6989 -16.6796 924.981
57.1269 -17.601 924.967
57.7641 -17.3897 923.047
56.9291 -16.3612 922.129
57.6507 -16.1027 920.621
86.8277 -22.6752 858.483
61.8077 -17.3203 857.078
48.3313 -59.2479 857.977
23.8378 -70.6967 871.322
29.9733 -13.7069 889.78
31.6889 -14.0184 889.931
45.7914 -71.2324 862.444
35.2186 -69.9707 860.965
-11.6121 -41.5632 887.512
-12.0854 -39.9783 886.891
-12.0889 -41.3161 885.504
41.0659 -21.7247 937.661
39.6433 -22.5395 937.852
39.4766 -24.0984 938.918
42.4665 -21.9839 938.275
42.6104 -23.3154 939.277
41.2704 -24.3339 939.589
41.9412 -57.2929 911.41
42.0564 -56.5325 909.457
43.8209 -56.8655 908.968
61.3167 -49.8243 903.498
60.0387 -50.8991 904.225
2.94315 -54.6796 860.564
47.0177 -46.1517 940.192
29.1113 -35.8196 905.14
29.3572 -49.4702 920.786
36.4691 -29.1909 858.006
37.1727 -27.807 857.991
38.6765 -26.7098 857.921
39.7261 -25.5415 857.891
39.0927 -28.3472 857.876
7.00109 -20.726 890.37
60.2506 -13.5012 886.294
60.0187 -14.617 887.774
58.2873 -14.7849 888.589
33.4201 -48.5371 906.004
33.3392 -46.9891 904.85
32.1003 -47.9318 906.873
56.2925 -48.5768 936.153
56.1313 -49.7216 934.503
37.0785 -51.0742 931.508
49.6589 -39.4266 942.221
48.214 -40.2008 942.165
62.2372 -61.1398 857.207
44.596 -3.66795 857.567
61.9667 -18.0444 917.051
-9.30981 -49.4321 875.684
25.3672 -70.7055 868.448
26.1432 -71.2443 869.912
25.7577 -41.8921 928.085
46.8313 -7.36599 857.497
-4.55206 -50.5653 864.954
-5.57788 -50.5051 866.56
-6.54785 -50.0155 867.985
-6.41632 -49.0081 866.811
-6.39718 -47.749 865.885
46.1696 -5.32814 857.423
61.4745 -21.9508 927.377
60.2815 -20.7496 926.942
-7.41378 -30.8704 863.759
-8.14319 -32.1402 864.7
-8.92138 -31.6165 866.095
-8.98655 -29.9284 866.547
-6.85279 -32.1381 862.902
53.1951 -0.0207338 859.433
-8.83516 -45.4685 890.34
-7.90102 -46.946 889.88
-9.09897 -44.274 891.376
60.1816 -67.1233 872.709
53.1107 -67.1483 877.515
7.28148 -41.8499 859.122
19.4209 -55.884 887.458
33.8741 -25.84 897.068
57.8608 -14.8453 917.945
9.13342 -27.1773 859.005
10.1735 -28.5916 859.042
58.2283 -59.0168 857.296
38.911 -40.7825 941.05
40.5465 -41.7265 941.168
43.3576 -30.8326 942.049
44.8352 -71.9028 864.034
27.1801 -63.4079 858.679
28.2611 -64.5909 858.776
25.505 -62.9196 858.693
61.1884 -60.9315 879.59
77.7833 -27.6995 887.492
76.5874 -27.2469 888.405
75.7408 -25.6139 888.522
74.8635 -23.9359 888.434
75.3054 -26.9783 889.49
76.2975 -24.443 887.449
77.1705 -23.6154 886.226
78.0369 -25.331 886.379
74.3874 -22.3056 887.744
75.2545 -21.4613 886.347
73.5553 -24.147 889.732
29.0075 -68.5312 882.088
28.1729 -67.3226 883.114
75.7733 -54.1136 879.047
77.1298 -52.9969 879.253
78.8506 -52.5256 878.375
79.1534 -53.5605 876.888
78.091 -51.6049 879.96
75.9926 -55.1996 877.601
77.4774 -54.9566 876.639
77.509 -55.8919 875.251
55.6613 -9.9723 857.165
55.3189 -14.3805 920.229
56.9398 -15.0013 919.578
62.6637 -49.4865 894.554
61.9921 -50.285 893.253
58.5072 -67.6639 873.416
57.1717 -68.7688 872.582
57.4737 -69.1687 870.986
56.5305 -69.8368 869.703
55.0297 -70.4281 869.821
54.1997 -70.4693 871.455
55.2727 -69.6665 872.603
54.8348 -69.2333 874.002
53.5059 -69.2707 874.972
55.3945 -68.1641 875.197
57.0893 -67.6195 874.674
52.3178 -70.3244 874.067
20.8134 -31.4924 895.99
20.8425 -33.3673 896.13
21.4639 -44.1705 895.15
54.6967 -22.3103 857.301
53.0598 -22.0175 857.379
65.1823 -45.4978 919.529
65.7671 -44.4011 920.646
65.5814 -43.9438 922.076
66.3619 -42.7303 923.125
14.8185 -17.8499 858.502
13.5894 -18.611 858.538
12.3688 -19.6944 858.593
85.1793 -41.0563 856.61
63.4554 -3.01269 871.289
83.9245 -25.7372 918.603
49.1091 -59.5822 885.11
70.7515 -58.0045 857.31
72.1581 -57.2148 857.245
73.1557 -58.3491 858.132
74.9109 -57.7466 858.486
78.8301 -15.145 877.688
38.8736 -20.8751 901.005
38.4913 -19.8587 902.348
33.5007 -32.4354 940.094
16.824 -22.8354 858.697
84.8216 -21.7534 877.86
27.0931 -17.3647 858.532
66.4603 -63.1193 873.578
66.6867 -62.1225 874.975
66.0389 -61.4422 876.362
64.367 -62.1606 876.535
63.6111 -63.4781 875.36
64.9097 -63.852 873.781
19.7341 -44.7792 858.868
17.9678 -44.1573 858.9
9.64604 -59.2749 859.897
8.9685 -57.6703 859.507
3.83968 -57.4142 861.527
32.8161 -72.5911 868.462
31.331 -31.206 939.181
73.2105 -47.3924 913.52
-12.243 -31.5354 887.422
-11.929 -29.8309 887.532
-11.3329 -29.372 889.3
-10.8212 -27.6871 889.171
-11.9241 -28.5647 886.203
70.9583 -23.3035 856.497
69.4629 -24.0237 856.596
77.3689 -58.3096 869.45
42.4542 -49.1194 896.443
15.1728 -66.4653 874.928
16.038 -67.174 873.627
79.5634 -45.7188 916.196
81.2885 -45.5004 915.228
66.6928 -51.6467 887.671
63.0421 -24.782 932.388
68.1807 -19.9675 912.982
-6.31945 -16.7434 873.463
75.4156 -52.299 856.502
76.2769 -53.8076 856.818
29.2681 -18.5688 858.489
55.5709 -52.6395 925.317
57.5323 -20.7446 857.219
75.3874 -51.8984 881.678
75.433 -53.0487 880.453
76.879 -50.8982 881.592
76.7547 -49.7186 882.814
77.9105 -48.5909 882.928
77.8314 -47.3655 884.006
78.9234 -46.2056 883.958
80.152 -46.3413 882.78
80.3098 -47.5193 881.774
81.4901 -47.4278 880.736
79.1661 -48.7598 881.758
79.0023 -50.0946 880.7
81.5464 -48.6843 879.67
80.4275 -49.8124 879.731
80.5772 -50.9412 878.501
82.6938 -48.7529 878.434
83.7119 -47.4042 878.418
83.6104 -46.1347 879.497
82.5288 -45.9539 880.768
84.6304 -44.8027 879.191
84.7382 -47.4182 877.117
85.8095 -45.9468 876.821
65.3751 -52.0438 857.069
64.3354 -50.6829 857.115
64.4967 -49.0032 857.08
49.0124 -16.2413 930.101
84.9682 -18.3511 874.42
84.9752 -19.4286 875.627
83.8815 -19.2389 876.931
31.1598 -66.567 859.032
56.3289 -65.6438 877.261
33.8987 -70.4968 880.506
27.6264 -35.9285 897.481
50.321 -18.334 857.644
50.6529 -20.1821 857.56
50.1355 -21.9812 857.537
48.6032 -21.0935 857.647
54.7377 -9.17586 883.348
53.5573 -9.92979 884.482
42.8887 -44.5231 940.636
80.4402 -24.3659 855.93
55.236 -56.8975 914.845
70.5497 -37.6306 896.287
21.1397 -33.5301 858.904
13.5873 -15.4506 858.397
11.9396 -16.1658 858.419
37.2517 -14.0409 914.412
32.2721 -11.1946 888.743
33.9068 -12.1186 888.876
21.8397 -31.1631 858.824
23.7115 -30.343 858.738
73.8851 -26.0508 917.636
75.3205 -26.8232 918.159
60.4456 -45.7176 934.663
28.3512 -45.3069 930.468
27.4454 -44.0021 930.546
45.0413 -0.576355 858.57
31.1618 -21.0088 927.735
60.2375 -59.7391 881.312
61.1571 -58.5515 882.247
80.9642 -12.1284 860.992
4.04976 -19.7756 889.448
61.4159 -46.6243 857.14
26.1848 -65.6966 859.312
56.3004 -69.9282 866.244
55.0784 -70.1389 864.697
-12.1747 -42.4654 881.748
-12.4733 -28.4441 881.242
73.0173 -22.8128 856.36
36.4091 -54.6492 918.657
14.7898 -58.1323 858.881
31.2901 -59.7043 858.733
33.222 -59.464 858.698
59.613 -4.19312 876.32
33.9814 -53.3882 915.294
49.8802 -58.6088 916.995
54.0448 1.83088 863.831
52.6737 2.3256 864.707
51.0563 2.72245 864.98
1.15929 -59.0807 878.623
66.7348 -38.6701 856.833
61.7416 -19.8109 900.27
63.1177 -20.7917 900.609
46.2078 -69.7643 860.138
1.39217 -37.3465 859.234
17.3217 -44.0001 894.433
22.3442 -56.4953 887.774
18.4132 -29.5555 858.878
16.6138 -13.0308 886.247
37.1971 -42.8384 858.162
38.656 -43.3908 858.113
28.7511 -3.09288 885.013
14.523 -66.8206 871.659
15.4794 -67.2405 870.297
89.2896 -34.3142 875.386
24.8885 -36.5423 930.028
24.8724 -37.4074 928.668
48.2497 -72.3914 869.228
55.2221 -15.9503 857.464
-0.729444 -12.0195 877.848
73.5458 -29.4412 891.993
78.5742 -22.7443 884.508
-3.14371 -13.8954 878.278
40.4699 3.80116 866.929
70.118 -6.21389 871.026
33.8278 3.53895 868.458
16.4113 -36.8934 859.025
26.1006 -62.5921 885.822
73.6303 -25.1988 856.341
67.1806 -49.726 911.405
61.6687 -62.2498 877.944
62.7897 -48.3891 902.006
61.8016 -48.9442 900.524
29.8598 -57.4861 888.93
35.9543 -44.7086 858.296
35.8126 -46.3155 858.373
16.3043 -2.89794 865.601
46.282 -10.5391 914.425
71.7587 -48.5281 908.858
17.0519 -63.0254 859.655
16.677 -61.5292 859.197
14.768 -61.5206 859.538
49.0012 1.74606 861.164
50.2496 2.16263 862.354
47.9913 1.14862 860.112
13.5715 -14.9233 886.924
13.1871 -13.744 885.896
12.5131 -12.4836 884.745
12.4511 -11.1553 883.675
13.7477 -10.1862 883.315
15.151 -15.2667 887.522
14.2896 -12.6271 885.286
-12.4505 -34.7227 875.841
-12.2871 -33.7291 874.99
-12.0847 -32.0359 874.391
-12.0514 -33.0821 873.99
-11.8081 -34.423 872.933
35.3009 -73.0042 869.246
22.1298 -58.1446 886.687
74.657 -55.3827 857.077
18.4825 -25.5403 858.752
8.19318 -56.8555 884.679
70.3714 -19.157 887.946
68.7689 -18.5623 888.345
67.6747 -18.9222 889.559
71.9619 -19.7672 887.409
72.9695 -19.3068 886.169
72.4932 -18.0561 885.18
70.8583 -17.2214 885.365
74.4623 -19.9263 885.614
84.6994 -33.5764 856.134
82.92 -33.5863 855.915
53.0729 -2.74527 857.604
66.3179 -64.8991 863.411
28.4437 -68.0474 860.415
-3.94832 -22.4707 891.359
-3.32391 -23.4424 892.736
61.751 -51.6419 908.58
71.5107 -40.9555 856.605
31.108 -36.6472 898.957
31.8706 -37.8237 899.917
31.7922 -37.9102 901.767
30.6785 -37.8612 903.529
31.2986 -36.2988 902.479
41.0481 -17.0116 891.625
60.1084 -53.5353 913.842
79.6833 -31.5016 855.975
85.0022 -26.6398 856.49
26.1284 -43.2823 927.228
38.4365 4.05464 869.435
37.2784 3.84396 868.103
50.6037 -43.1399 941.298
56.4476 0.971964 870.428
55.1735 1.69295 869.388
55.5396 0.91719 871.969
54.0645 1.36922 872.539
49.2024 -56.6627 921.182
32.455 -51.115 923.862
68.2427 -58.7751 878.369
69.0412 -57.6316 879.285
47.424 -54.1436 903.843
42.099 -37.5877 857.802
40.9864 -39.0911 857.843
41.8962 -40.5471 857.84
43.7599 -40.4367 857.785
40.9855 -42.0319 857.93
39.3492 -41.7709 858.001
44.1297 -42.1359 857.808
60.4615 -15.8426 910.082
44.6818 1.60138 860.602
43.6972 2.23894 861.738
44.4088 2.91353 863.29
46.8518 2.35837 862.011
39.6276 0.803093 880.973
75.6032 -8.02035 862.9
75.8929 -8.52951 861.166
40.9954 -19.4964 900.595
71.5356 -35.1887 894.964
70.9161 -33.8907 895.961
71.4137 -32.4463 895.193
70.7064 -31.1497 896.152
69.9199 -31.0209 897.842
70.078 -32.6104 898.834
19.4649 -44.1778 894.786
85.3266 -38.3501 919.588
71.3017 -6.0734 861.783
70.8184 -5.57 863.265
71.5841 -57.8518 877.367
72.2871 -58.6072 875.791
73.0079 -56.8406 877.698
74.5358 -56.3833 877.19
74.9563 -57.1397 875.765
74.0899 -58.1865 874.859
76.132 -57.1874 874.532
74.3037 -58.898 873.312
82.9275 -54.1725 868.766
67.9455 -23.6215 895.496
63.3061 -56.3804 857.087
61.8364 -57.2792 857.158
67.8652 -41.6229 922.218
52.3512 -16.6634 892.259
82.5889 -42.1744 919.911
84.4971 -40.9539 919.649
82.1619 -40.5438 920.846
80.3241 -39.4406 920.686
79.3663 -37.8839 920.736
79.6674 -36.208 921.003
81.0359 -35.5659 921.473
82.7254 -36.4806 921.707
84.0145 -38.1251 921.381
81.9942 -38.6844 921.324
69.4203 -38.5458 898.271
54.2791 -5.13714 879.694
75.5602 -13.1259 856.639
74.1115 -12.051 856.811
42.6562 -1.16787 881.737
27.7216 -43.3416 858.578
67.4642 -36.0831 929.703
67.9113 -34.6644 928.625
57.7536 -55.1699 912.885
56.054 -13.1276 911.095
39.8701 -33.612 941.793
60.0809 -66.2611 874.237
61.7008 -65.0927 874.623
89.0779 -42.6921 872.74
13.7687 -58.5869 883.981
26.1073 -43.4925 912.548
26.3099 -42.6133 911.14
25.9552 -41.2764 910.92
-4.1301 -35.1861 860.494
-12.4976 -38.1991 877.239
25.0754 -31.9696 928.221
54.6333 -52.7209 927.941
11.0798 -64.534 875.409
28.6794 -30.1877 937.682
52.6353 -71.2893 868.842
68.4325 -60.2426 857.808
0.459547 -10.4498 870.333
84.9212 -20.1863 857.644
-9.636 -21.576 875.345
24.5201 -59.9578 858.729
-9.07247 -30.1276 895.026
-9.08409 -28.6534 893.906
88.3832 -21.3551 869.894
-1.35873 -18.2027 862.024
47.5504 -17.7935 898.664
27.468 -40.2646 936.025
21.6954 -59.8657 858.716
20.0818 -60.661 858.738
42.6408 -53.8663 927.79
44.1928 -58.1911 912.066
44.2616 -58.5073 913.534
65.0274 -48.8965 893.236
65.3209 -22.4115 901.582
72.0506 -34.9957 921.516
71.5343 -33.5553 922.007
70.3083 -33.8554 923.347
26.0914 -34.7268 858.679
6.82286 -30.2478 859.118
8.68663 -30.2084 859.119
52.5008 -9.88792 857.354
32.7137 -29.6442 900.014
36.4926 -15.5088 890.721
38.6644 -37.1503 857.911
65.5842 -30.2321 933.475
66.2906 -29.7832 931.935
77.7548 -58.3502 866.298
78.7333 -57.6219 867.621
55.332 -34.1571 941.255
25.1749 -40.3112 912.162
69.5104 -5.65614 860.499
86.8876 -19.142 861.301
86.1684 -19.4198 859.548
70.2134 -50.1858 887.088
33.6756 -48.9911 932.288
18.3966 -35.3031 858.992
-0.0722065 -10.6425 873.026
59.849 -44.2838 937.227
73.8701 -53.0334 881.546
72.6941 -54.1743 881.088
72.998 -55.4113 879.48
76.1029 -59.4085 864.859
-5.72363 -45.6217 863.701
-5.09113 -54.0975 880.424
-5.73692 -54.0533 878.612
27.4811 -4.24991 885.581
67.0144 -63.9913 870.985
68.541 -63.0968 871.044
69.3411 -62.1936 872.25
44.8263 -72.901 871.482
47.7727 2.90297 863.806
27.9122 -23.4856 912.098
37.0799 -70.5889 861.507
27.7211 -46.5303 912.447
27.2381 -45.0849 911.563
30.3344 -20.0561 893.471
29.9771 -60.4638 887.727
89.0589 -35.3323 859.44
88.1441 -34.3554 858.117
66.7956 -47.6143 905.423
53.4316 -14.859 857.538
51.803 -51.6602 898.823
41.8975 4.10607 869.876
23.8114 -32.9626 921.112
23.7119 -34.8681 920.987
23.9333 -33.7881 922.658
24.128 -34.6543 924.197
24.0954 -36.2815 924.094
-5.05027 -48.3037 864.172
85.0201 -16.2667 860.979
47.7863 -43.2909 941.417
47.1464 -41.7059 941.864
26.7692 -29.0115 909.149
32.2576 -40.0774 901.975
52.615 -46.3936 939.491
63.6329 -50.3338 907.734
90.718 -35.5976 870.835
90.4778 -37.1773 871.462
14.3007 -59.7555 859.097
42.5902 -54.8609 906.46
49.1392 -62.8065 882.112
46.8408 -31.7637 857.71
-0.4312 -56.0244 882.471
64.6413 -48.448 905.044
58.7394 -47.679 934.073
57.9743 -47.5146 935.805
72.1736 -25.4424 891.847
70.9519 -23.8035 891.975
63.6363 -40.0992 856.986
15.4046 -51.2119 890.436
30.2024 -41.0852 904.764
16.5134 -35.0326 895.303
17.6993 -32.1366 895.41
-2.1901 -51.0336 862.474
66.6815 -20.3359 892.271
59.8778 -33.4675 939.16
58.3956 -32.588 939.887
87.6449 -20.5942 861.521
88.8883 -37.1699 875.858
80.3638 -40.3274 856.138
48.1134 -12.7523 887.917
17.0366 -19.7801 891.054
17.4804 -18.4483 890.283
16.4427 -17.5618 889.471
14.7565 -17.8362 889.359
21.4857 -3.54473 860.528
31.8104 -61.9829 858.557
3.37035 -60.5313 877.794
-7.77032 -51.7054 879.559
-8.49901 -50.619 880.469
69.7438 -5.50587 869.323
35.3442 -26.6514 938.649
34.8183 -26.2729 899.107
34.267 -26.8323 900.394
63.2815 -18.452 915.755
-6.11535 -44.9424 894.664
-7.43157 -44.9081 893.333
17.5849 -50.3248 891.459
64.1242 -21.3172 898.306
65.4052 -22.6812 899.128
38.5188 -22.6346 898.342
37.5445 -22.8606 900.014
37.0386 -22.2243 901.494
61.0754 -15.9574 913.897
81.2938 -55.7816 866.881
70.848 -30.9337 922.092
47.3855 -47.7487 857.875
19.651 -68.8429 869.625
50.0776 -69.7589 860.55
50.8278 -70.5346 862.194
52.4062 -70.4687 862.946
51.6671 -69.0798 860.038
78.1349 -45.3264 907.829
77.1667 -44.6467 906.479
45.258 -53.11 891.173
58.2258 -50.8018 895.229
56.5215 -51.073 895.836
81.3357 -41.7501 884.097
9.67077 -11.5985 883.342
28.4781 -61.4464 858.639
82.5093 -44.4076 915.913
27.1593 -58.6746 858.817
57.9343 -8.02001 881.01
29.5704 -38.0124 904.766
33.7388 -50.3671 907.67
81.1151 -44.9728 882.778
84.2006 -52.9742 863.868
27.7399 -13.7471 889.555
27.1023 -12.2143 888.882
25.4744 -12.2082 888.515
77.0557 -25.3892 917.884
32.6667 -42.5644 938.133
11.4574 -65.1281 865.491
83.4524 -13.9476 862.435
60.8447 -28.3663 937.875
62.3129 -28.9496 936.93
4.58942 -62.5959 871.757
79.6393 -42.6184 907.103
23.727 -37.9401 918.238
57.7537 -37.0865 940.264
58.2478 -35.4855 940.066
57.0261 -34.3449 940.608
18.3828 -6.17725 859.622
63.827 -47.6948 898.128
7.12726 -59.9507 861.412
29.0801 -40.7875 897.171
64.3579 -66.0428 869.115
43.5039 -54.7533 889.925
28.7053 -48.3776 923.068
73.0202 -44.3639 916.547
57.3676 -40.9669 939.973
75.824 -37.1251 856.29
58.0687 -27.1189 939.057
58.7559 -28.6505 939.136
57.5562 -29.7335 939.926
55.9995 -29.3639 940.487
55.557 -27.6876 940.242
56.4909 -26.4181 939.485
5.45066 -27.5624 894.229
78.3843 -38.236 904.924
59.4013 -64.2305 877.049
39.6427 -53.1095 928.302
-4.27491 -21.3218 863.228
75.012 -13.6469 878.784
24.2769 -32.2488 924.119
65.5829 -21.307 895.286
52.5649 2.62634 868.062
18.5259 -65.8031 879.811
26.8121 -7.23947 887.111
29.6305 -20.2002 916.544
30.3868 -19.6029 914.933
30.1031 -20.2234 913.397
39.8004 -51.4506 903.73
39.464 -52.3323 904.997
39.8744 -53.3689 906.074
87.6462 -25.8721 858.443
3.18098 -61.4917 874.553
57.6656 -11.4489 884.843
58.3339 -12.6624 886.001
57.3781 -13.502 887.277
55.7651 -13.136 887.272
54.7041 -14.0913 888.539
55.0716 -12.0343 886.248
56.1233 -11.2049 885.07
62.3365 -52.083 911.983
29.4895 -49.8601 917.169
63.7019 -58.7796 880.826
63.3572 -57.75 882.178
62.7495 -59.9573 879.927
49.4795 -58.5554 911.977
76.1178 -19.8109 856.104
23.3357 -30.815 896.367
6.42844 -23.7557 892.252
59.8399 -68.5045 866.92
58.9315 -68.9051 868.155
59.183 -68.5947 869.867
59.7993 -67.9729 871.122
-4.34599 -41.1606 899.634
45.8878 -12.3165 920.142
46.4966 -11.5951 918.97
63.2395 -11.2815 856.796
57.3309 0.664024 863.15
55.5721 -56.9073 886.113
56.8737 -55.8854 886.855
56.5552 -54.7973 888.168
46.7449 -38.9651 942.335
66.7633 -20.4557 905.469
90.3814 -40.7585 866.199
90.685 -39.3316 867.195
60.0383 -18.8737 897.496
61.5313 -19.3941 896.695
44.5262 -12.3628 908.172
-12.2716 -41.3573 878.697
47.8608 -17.9626 894.026
30.3149 -44.0572 906.03
31.5772 -34.8577 900.597
49.0043 -55.9032 906.273
63.1262 -2.17087 869.345
61.5924 -1.34505 869.225
62.6294 -20.5304 857.01
24.0323 -3.02316 860.173
76.2674 -33.9139 889.732
5.62822 -15.2539 885.776
60.6046 -10.624 856.915
14.9055 -38.7088 859.023
71.9622 -22.3704 889.873
-7.91993 -39.9533 897.096
-6.61117 -29.6679 897.941
67.485 -43.5461 919.724
68.2666 -42.3773 920.536
64.0332 -23.1661 923.635
52.4729 -32.0046 941.885
44.9919 -36.5035 942.452
45.4635 -35.1376 942.522
28.4163 -42.0424 907.26
29.5138 -42.4741 906.096
60.8122 -20.4874 924.795
59.6167 -19.3188 924.286
61.6073 -20.82 923.491
61.5133 -20.2906 921.898
66.9584 -47.1504 856.902
66.5782 -48.8205 856.96
50.1371 -53.6154 902.882
31.4437 -19.5959 911.326
-11.0262 -35.6869 870.594
80.549 -33.5704 921.292
-11.1771 -32.2603 871.132
51.7861 -58.4521 915.275
58.3062 -57.8356 884.215
-10.8112 -23.7955 882.355
81.0951 -24.6569 883.429
55.4856 1.7117 867.087
45.0807 -41.5708 941.797
26.5474 -2.1255 883.473
27.4602 -1.03692 882.548
37.7887 -19.2344 932.507
57.5467 -69.5188 867.57
38.5577 -2.92646 884.068
67.6971 -47.3975 892.818
66.1022 -55.2122 883.727
5.20314 -24.8578 893.002
75.4829 -49.5103 883.958
58.608 -53.1897 918.842
44.5968 -18.01 900.037
5.18689 -56.4977 860.282
6.64784 -56.1748 859.654
7.07333 -57.904 860.156
84.1648 -23.1897 856.487
77.2865 -40.3976 856.303
38.931 -20.6695 894.465
13.5985 -64.7816 862.638
37.4938 -72.2993 877.272
89.1435 -44.8397 865.388
46.0384 -55.5967 906.165
35.6331 -45.2718 901.306
24.155 -38.7601 923.607
51.5943 -55.413 905.918
53.0281 -55.3556 906.44
53.5977 -55.9339 907.883
55.1158 -55.3295 908.015
65.5345 -62.2176 858.15
30.4708 -35.0994 903.585
42.4859 -35.5156 942.24
43.2667 -34.3166 942.334
61.4062 -56.4039 884.612
60.7284 -55.5928 885.852
62.0835 -54.676 886.358
60.5466 -57.5641 883.634
59.604 -55.1359 886.826
70.0558 -36.3591 923.342
25.5269 -70.6991 876.263
29.5738 -49.885 919.186
17.0451 -15.8562 888.399
12.7858 -60.1381 882.362
61.7772 -48.6574 920.206
40.7642 -22.7888 857.935
80.4396 -45.5664 911.238
16.9791 -36.9684 895.365
56.2286 -55.8491 911.183
82.0293 -54.0724 860.391
60.601 -50.9999 918.804
69.0308 -23.7348 894.119
70.3179 -24.8324 893.513
77.935 -40.446 905.126
78.8396 -56.9706 870.88
68.3077 -56.3476 881.25
30.5889 -12.0724 889.185
63.2271 -65.5684 872.435
62.1383 -66.5461 871.608
64.6814 -65.0295 871.796
62.683 -66.7599 870.047
24.9298 -34.1557 929.038
77.3634 -54.6033 857.354
3.602 -39.823 859.177
-7.1938 -42.7644 895.9
52.1283 -56.7829 908.651
53.7217 -54.1162 923.709
82.5553 -41.4363 911.011
-3.151 -47.8519 861.858
20.8574 -50.313 892.105
28.5752 -11.3012 888.823
43.8861 -32.52 942.302
49.5184 -53.4091 890.813
76.4672 -14.9602 879.234
76.1553 -16.137 880.651
69.1054 -39.5758 900.075
80.3302 -29.2548 885.646
14.4763 -35.1351 894.931
13.0046 -38.6553 859.054
69.0376 -34.4223 925.486
66.7622 -41.5014 925.119
85.2259 -35.7401 856.363
83.9768 -36.9883 856.136
41.4651 -20.5962 898.045
67.4841 -50.5486 888.586
48.1619 -51.6976 857.956
40.4276 3.40828 865.2
16.6306 -58.3543 858.833
17.7376 -59.6847 858.804
72.2306 -49.2129 886.665
-11.5702 -29.9189 873.181
-11.6477 -31.5421 872.809
28.7337 -61.6328 887.065
27.1386 -61.2346 886.82
26.8376 -59.7697 887.392
32.9543 -54.906 858.781
33.2695 -56.7399 858.776
35.0076 -56.8758 858.716
35.2726 -58.5903 858.666
36.6581 -59.2426 858.584
37.2458 -60.7702 858.473
46.5142 -42.9151 857.766
-1.68742 -20.5505 889.642
43.6001 -8.54477 885.099
28.0627 -27.2515 858.515
84.6526 -38.7459 915.943
85.2049 -37.6138 917.107
43.881 -38.4328 942.204
-2.42321 -16.3446 883.839
83.223 -30.1094 921.43
-8.61029 -50.0763 882.008
27.0971 -24.5547 895.254
36.4312 0.844417 881.345
67.6048 -21.7966 856.716
-3.39216 -56.0792 878.715
-3.57741 -55.4062 880.11
45.7436 -40.2431 857.752
-7.26712 -21.4036 887.239
81.9619 -19.6786 856.298
53.8512 -39.4426 857.468
55.7522 -39.5929 857.352
56.646 -41.0775 857.273
55.8173 -42.5336 857.294
54.2566 -42.6986 857.386
27.0982 -26.2848 929.236
55.4644 -56.6251 912.693
-1.14562 -17.632 886.305
26.9824 0.290544 880.457
28.3225 0.905612 879.949
78.4209 -43.237 856.259
67.0275 -24.232 856.752
57.2477 -52.61 922.123
-2.2052 -53.04 863.825
-3.43357 -52.4701 864.918
40.5471 -38.0814 941.786
49.5876 -42.8573 857.66
51.3602 -42.3096 857.573
40.9323 -1.36237 858.395
73.282 -52.9591 856.595
-11.3797 -38.232 872.025
83.664 -32.9968 921.633
83.8394 -31.5515 921.531
84.8563 -28.3665 856.317
83.3826 -29.1024 855.979
83.4379 -30.7284 855.949
82.0308 -28.1992 855.891
50.6277 -67.3947 878.454
32.5368 -21.1321 894.187
10.3289 -24.1294 858.854
29.9448 -69.6348 880.95
60.6654 -51.6453 907.151
34.5136 0.450426 881.925
57.5655 -49.1018 933.201
89.9029 -36.3961 873.666
54.8275 -2.69535 857.716
18.2515 -1.83482 867.099
34.8924 -61.1328 886.915
24.7836 -34.247 931.921
29.8729 -28.4642 905.194
