ply
format ascii 1.0
comment VCGLIB generated
element vertex 2303
property float x
property float y
property float z
element face 0
property list uchar int vertex_indices
end_header
74.9925 15.0029 785 
76.3625 15.0029 785 
77.7325 15.0029 785 
79.1025 15.0029 785 
80.4725 15.0029 785 
82.0511 15.0412 787 
83.4246 15.0412 787 
84.7981 15.0412 787 
86.1715 15.0412 787 
87.7675 15.0794 789 
89.1445 15.0794 789 
90.5215 15.0794 789 
91.8985 15.0794 789 
93.2755 15.0794 789 
106.889 17.0288 891 
108.444 17.0288 891 
109.999 17.0288 891 
111.554 17.0288 891 
112.855 16.9906 889 
114.406 16.9906 889 
116.219 17.0288 891 
117.774 17.0288 891 
119.329 17.0288 891 
120.884 17.0288 891 
37.9077 18.3127 878 
39.5298 18.3544 880 
41.0656 18.3544 880 
42.6014 18.3544 880 
44.1372 18.3544 880 
45.673 18.3544 880 
47.3161 18.3961 882 
48.8554 18.3961 882 
50.5661 18.4587 885 
49.6376 17.5827 843 
51.1088 17.5827 843 
52.5801 17.5827 843 
51.4225 16.7275 802 
52.8221 16.7275 802 
53.6809 16.5606 794 
55.0666 16.5606 794 
56.168 16.4772 790 
57.4738 16.4564 789 
58.8508 16.4564 789 
60.0751 16.4146 787 
61.4486 16.4146 787 
62.8221 16.4146 787 
64.0325 16.3729 785 
65.4025 16.3729 785 
66.7725 16.3729 785 
68.1425 16.3729 785 
69.5125 16.3729 785 
70.7019 16.3312 783 
72.0684 16.3312 783 
73.6225 16.3729 785 
74.9925 16.3729 785 
76.3625 16.3729 785 
77.7325 16.3729 785 
79.1025 16.3729 785 
80.4725 16.3729 785 
81.8425 16.3729 785 
83.2126 16.3729 785 
84.5826 16.3729 785 
86.1715 16.4146 787 
87.545 16.4146 787 
88.9185 16.4146 787 
90.0626 16.3729 785 
91.4326 16.3729 785 
92.8026 16.3729 785 
106.889 18.5838 891 
108.444 18.5838 891 
109.752 18.5421 889 
111.303 18.5421 889 
112.855 18.5421 889 
114.406 18.5421 889 
116.219 18.5838 891 
117.774 18.5838 891 
119.329 18.5838 891 
120.884 18.5838 891 
34.8431 19.845 878 
36.3754 19.845 878 
37.9077 19.845 878 
39.44 19.845 878 
41.0656 19.8902 880 
42.6014 19.8902 880 
44.1372 19.8902 880 
43.6489 19.0087 841 
45.1166 19.0087 841 
46.5844 19.0087 841 
48.0521 19.0087 841 
49.6376 19.0539 843 
51.1088 19.0539 843 
52.5801 19.0539 843 
51.166 18.0368 798 
52.5587 18.0368 798 
53.6809 17.9464 794 
55.0666 17.9464 794 
56.168 17.856 790 
57.4738 17.8333 789 
58.8508 17.8333 789 
60.0751 17.7881 787 
61.4486 17.7881 787 
62.8221 17.7881 787 
64.0325 17.7429 785 
65.4025 17.7429 785 
66.7725 17.7429 785 
68.1425 17.7429 785 
69.3354 17.6977 783 
70.7019 17.6977 783 
72.0684 17.6977 783 
73.435 17.6977 783 
74.8015 17.6977 783 
76.168 17.6977 783 
77.7325 17.7429 785 
79.1025 17.7429 785 
80.4725 17.7429 785 
81.8425 17.7429 785 
83.2126 17.7429 785 
84.5826 17.7429 785 
85.9526 17.7429 785 
87.3226 17.7429 785 
88.6926 17.7429 785 
90.0626 17.7429 785 
91.4326 17.7429 785 
92.8026 17.7429 785 
106.649 20.0936 889 
108.2 20.0936 889 
109.752 20.0936 889 
101.287 18.2854 809 
102.699 18.2854 809 
104.111 18.2854 809 
105.523 18.2854 809 
107.199 18.3306 811 
119.329 20.1388 891 
120.613 20.0936 889 
122.164 20.0936 889 
28.7138 21.3773 878 
30.2461 21.3773 878 
31.7784 21.3773 878 
33.3107 21.3773 878 
34.8431 21.3773 878 
36.3754 21.3773 878 
37.9077 21.3773 878 
39.44 21.3773 878 
40.9723 21.3773 878 
42.5046 21.3773 878 
42.2815 20.5251 843 
43.6489 20.4764 841 
45.1166 20.4764 841 
46.5844 20.4764 841 
48.0521 20.4764 841 
49.5198 20.4764 841 
51.1088 20.5251 843 
52.5801 20.5251 843 
51.0377 19.3808 796 
52.4269 19.3808 796 
53.9514 19.4295 798 
55.0666 19.3321 794 
56.168 19.2347 790 
57.4738 19.2103 789 
58.8508 19.2103 789 
60.0751 19.1616 787 
61.4486 19.1616 787 
62.6625 19.1129 785 
64.0325 19.1129 785 
65.4025 19.1129 785 
66.7725 19.1129 785 
68.1425 19.1129 785 
69.3354 19.0642 783 
70.7019 19.0642 783 
72.0684 19.0642 783 
73.435 19.0642 783 
74.8015 19.0642 783 
76.168 19.0642 783 
77.7325 19.1129 785 
79.1025 19.1129 785 
80.4725 19.1129 785 
81.8425 19.1129 785 
83.2126 19.1129 785 
84.5826 19.1129 785 
85.9526 19.1129 785 
87.3226 19.1129 785 
88.6926 19.1129 785 
90.0626 19.1129 785 
91.4326 19.1129 785 
92.8026 19.1129 785 
96.8118 19.6486 807 
98.2202 19.6486 807 
99.3817 19.5999 805 
100.787 19.5999 805 
102.445 19.6486 807 
104.111 19.6973 809 
105.523 19.6973 809 
106.935 19.6973 809 
108.347 19.6973 809 
120.613 21.6451 889 
121.889 21.5964 887 
25.6492 22.9096 878 
27.1815 22.9096 878 
28.7138 22.9096 878 
30.2461 22.9096 878 
31.7784 22.9096 878 
33.3107 22.9096 878 
34.724 22.8313 875 
36.2511 22.8313 875 
37.9077 22.9096 878 
39.44 22.9096 878 
40.9723 22.9096 878 
40.7134 21.9442 841 
42.1811 21.9442 841 
43.6489 21.9442 841 
45.1166 21.9442 841 
46.5844 21.9442 841 
48.0521 21.9442 841 
49.5198 21.9442 841 
50.9876 21.9442 841 
52.4553 21.9442 841 
51.0377 20.77 796 
52.4269 20.77 796 
53.8162 20.77 796 
55.0666 20.7178 794 
56.3102 20.6656 792 
57.5467 20.6134 790 
58.8508 20.5873 789 
60.0751 20.5351 787 
61.4486 20.5351 787 
62.6625 20.4829 785 
64.0325 20.4829 785 
65.4025 20.4829 785 
66.7725 20.4829 785 
68.1425 20.4829 785 
69.3354 20.4308 783 
70.7019 20.4308 783 
72.0684 20.4308 783 
73.435 20.4308 783 
74.8015 20.4308 783 
76.168 20.4308 783 
77.7325 20.4829 785 
79.1025 20.4829 785 
80.4725 20.4829 785 
81.8425 20.4829 785 
83.2126 20.4829 785 
84.5826 20.4829 785 
85.9526 20.4829 785 
87.3226 20.4829 785 
88.6926 20.4829 785 
90.0626 20.4829 785 
91.4326 20.4829 785 
95.167 21.0048 805 
96.5719 21.0048 805 
97.9768 21.0048 805 
99.3817 21.0048 805 
100.787 21.0048 805 
102.445 21.057 807 
103.854 21.057 807 
105.262 21.057 807 
106.671 21.057 807 
108.079 21.057 807 
109.487 21.057 807 
121.889 23.1444 887 
22.5846 24.4419 878 
24.1169 24.4419 878 
25.6492 24.4419 878 
27.1815 24.4419 878 
28.7138 24.4419 878 
30.2461 24.4419 878 
31.7784 24.4419 878 
33.1969 24.3584 875 
34.724 24.3584 875 
36.2511 24.3584 875 
37.9077 24.4419 878 
39.44 24.4419 878 
39.2457 23.4119 841 
40.7134 23.4119 841 
42.1811 23.4119 841 
43.6489 23.4119 841 
45.1166 23.4119 841 
46.5844 23.4119 841 
48.0521 23.4119 841 
49.5198 23.4119 841 
50.9876 23.4119 841 
49.7733 22.2148 798 
51.0377 22.1592 796 
52.4269 22.1592 796 
53.6809 22.1035 794 
55.0666 22.1035 794 
56.3102 22.0478 792 
57.5467 21.9921 790 
58.8508 21.9643 789 
60.0751 21.9086 787 
61.4486 21.9086 787 
62.6625 21.853 785 
64.0325 21.853 785 
65.4025 21.853 785 
66.7725 21.853 785 
68.1425 21.853 785 
69.5125 21.853 785 
70.7019 21.7973 783 
72.0684 21.7973 783 
73.435 21.7973 783 
74.8015 21.7973 783 
76.168 21.7973 783 
77.7325 21.853 785 
79.1025 21.853 785 
80.4725 21.853 785 
81.8425 21.853 785 
83.2126 21.853 785 
84.5826 21.853 785 
85.9526 21.853 785 
87.1001 21.7973 783 
88.4666 21.7973 783 
90.0626 21.853 785 
91.6655 21.9086 787 
95.167 22.4097 805 
96.5719 22.4097 805 
97.9768 22.4097 805 
99.3817 22.4097 805 
100.787 22.4097 805 
102.445 22.4654 807 
103.854 22.4654 807 
105.262 22.4654 807 
106.671 22.4654 807 
108.079 22.4654 807 
109.487 22.4654 807 
121.889 24.6924 887 
19.4533 25.8855 875 
20.9803 25.8855 875 
22.5846 25.9742 878 
24.0345 25.8855 875 
25.5616 25.8855 875 
27.0886 25.8855 875 
28.7138 25.9742 878 
30.2461 25.9742 878 
31.7784 25.9742 878 
33.1969 25.8855 875 
34.724 25.8855 875 
36.2511 25.8855 875 
36.1375 24.7613 837 
37.5983 24.7613 837 
39.2457 24.8796 841 
40.7134 24.8796 841 
42.1811 24.8796 841 
43.6489 24.8796 841 
45.1166 24.8796 841 
46.4736 24.8205 839 
47.9378 24.8205 839 
49.5198 24.8796 841 
48.2593 23.5484 796 
49.6485 23.5484 796 
51.0377 23.5484 796 
52.2952 23.4892 794 
53.6809 23.4892 794 
55.0666 23.4892 794 
56.3102 23.43 792 
57.5467 23.3709 790 
58.8508 23.3413 789 
60.0751 23.2821 787 
61.4486 23.2821 787 
62.6625 23.223 785 
64.0325 23.223 785 
65.4025 23.223 785 
66.7725 23.223 785 
68.1425 23.223 785 
69.5125 23.223 785 
70.8825 23.223 785 
72.2525 23.223 785 
73.6225 23.223 785 
74.8015 23.1638 783 
76.168 23.1638 783 
77.7325 23.223 785 
79.1025 23.223 785 
80.4725 23.223 785 
81.8425 23.223 785 
83.2126 23.223 785 
84.3671 23.1638 783 
85.7336 23.1638 783 
87.1001 23.1638 783 
88.4666 23.1638 783 
90.292 23.2821 787 
91.6655 23.2821 787 
95.167 23.8146 805 
96.5719 23.8146 805 
97.9768 23.8146 805 
99.3817 23.8146 805 
100.787 23.8146 805 
102.445 23.8738 807 
103.854 23.8738 807 
105.262 23.8738 807 
106.671 23.8738 807 
108.079 23.8738 807 
109.487 23.8738 807 
16.3616 27.3499 873 
17.9262 27.4125 875 
19.4533 27.4125 875 
20.9803 27.4125 875 
22.5846 27.5065 878 
24.0345 27.4125 875 
25.5616 27.4125 875 
25.6026 25.9088 827 
27.0459 25.9088 827 
28.5581 25.9714 829 
30.0773 26.0341 831 
31.5276 26.0341 831 
32.9779 26.0341 831 
34.4282 26.0341 831 
35.9648 26.0967 833 
37.5084 26.1594 835 
38.9657 26.1594 835 
40.5198 26.222 837 
42.0808 26.2847 839 
43.4413 26.222 837 
44.902 26.222 837 
46.3628 26.222 837 
47.8235 26.222 837 
49.2843 26.222 837 
48.2593 24.9376 796 
49.5238 24.8749 794 
50.9095 24.8749 794 
52.2952 24.8749 794 
53.6809 24.8749 794 
55.0666 24.8749 794 
56.3102 24.8123 792 
57.5467 24.7496 790 
58.8508 24.7183 789 
60.0751 24.6556 787 
61.4486 24.6556 787 
62.8221 24.6556 787 
64.0325 24.593 785 
65.4025 24.593 785 
66.7725 24.593 785 
68.1425 24.593 785 
69.5125 24.593 785 
70.8825 24.593 785 
72.2525 24.593 785 
73.6225 24.593 785 
74.9925 24.593 785 
76.3625 24.593 785 
77.7325 24.593 785 
79.1025 24.593 785 
80.4725 24.593 785 
81.634 24.5303 783 
83.0005 24.5303 783 
84.3671 24.5303 783 
85.7336 24.5303 783 
87.3226 24.593 785 
88.6926 24.593 785 
90.5215 24.7183 789 
91.8985 24.7183 789 
94.9305 25.1569 803 
96.5719 25.2195 805 
97.9768 25.2195 805 
99.1348 25.1569 803 
100.536 25.1569 803 
102.445 25.2822 807 
103.854 25.2822 807 
105.262 25.2822 807 
106.406 25.2195 805 
107.811 25.2195 805 
109.487 25.2822 807 
14.838 28.8735 873 
16.3616 28.8735 873 
17.9262 28.9396 875 
19.4533 28.9396 875 
20.9803 28.9396 875 
21.2213 27.2859 825 
22.6611 27.2859 825 
24.1009 27.2859 825 
25.6026 27.3521 827 
27.0459 27.3521 827 
28.5581 27.4182 829 
30.0049 27.4182 829 
31.4517 27.4182 829 
32.9779 27.4844 831 
34.4282 27.4844 831 
35.8784 27.4844 831 
37.4186 27.5505 833 
38.8724 27.5505 833 
40.4229 27.6167 835 
41.7799 27.5505 833 
43.2337 27.5505 833 
44.6875 27.5505 833 
46.1412 27.5505 833 
47.4807 27.4844 831 
48.931 27.4844 831 
48.2593 26.3268 796 
49.5238 26.2606 794 
50.9095 26.2606 794 
52.2952 26.2606 794 
53.6809 26.2606 794 
55.0666 26.2606 794 
56.3102 26.1945 792 
57.5467 26.1283 790 
58.9254 26.1283 790 
60.2278 26.0953 789 
61.4486 26.0291 787 
62.8221 26.0291 787 
64.1956 26.0291 787 
65.4025 25.963 785 
66.7725 25.963 785 
68.1425 25.963 785 
69.5125 25.963 785 
70.8825 25.963 785 
72.2525 25.963 785 
73.6225 25.963 785 
74.9925 25.963 785 
76.3625 25.963 785 
77.7325 25.963 785 
79.1025 25.963 785 
80.4725 25.963 785 
81.634 25.8968 783 
83.0005 25.8968 783 
84.3671 25.8968 783 
85.7336 25.8968 783 
87.3226 25.963 785 
89.2575 26.1283 790 
90.6362 26.1283 790 
93.1797 26.4591 800 
94.9305 26.5583 803 
96.5719 26.6244 805 
97.9768 26.6244 805 
99.1348 26.5583 803 
100.536 26.5583 803 
102.445 26.6906 807 
103.854 26.6906 807 
105.001 26.6244 805 
106.406 26.6244 805 
107.811 26.6244 805 
119.663 29.1711 882 
14.804 30.3274 871 
16.3241 30.3274 871 
16.8609 28.6561 823 
18.2972 28.6561 823 
19.6855 28.5865 821 
21.1184 28.5865 821 
22.5512 28.5865 821 
24.0425 28.6561 823 
25.4788 28.6561 823 
26.9805 28.7257 825 
28.4892 28.7954 827 
30.0049 28.865 829 
31.4517 28.865 829 
32.8985 28.865 829 
34.3453 28.865 829 
35.7921 28.865 829 
37.3287 28.9346 831 
38.779 28.9346 831 
40.2293 28.9346 831 
41.6796 28.9346 831 
43.1299 28.9346 831 
44.5802 28.9346 831 
46.0304 28.9346 831 
47.3665 28.865 829 
48.8132 28.865 829 
50.3813 28.9346 831 
49.6485 27.716 796 
51.0377 27.716 796 
52.2952 27.6463 794 
53.6809 27.6463 794 
55.0666 27.6463 794 
56.3102 27.5767 792 
57.6924 27.5767 792 
58.9254 27.5071 790 
60.2278 27.4722 789 
61.6048 27.4722 789 
62.8221 27.4026 787 
64.1956 27.4026 787 
65.5691 27.4026 787 
66.7725 27.333 785 
68.1425 27.333 785 
69.5125 27.333 785 
70.8825 27.333 785 
72.2525 27.333 785 
73.6225 27.333 785 
74.9925 27.333 785 
76.3625 27.333 785 
77.7325 27.333 785 
79.1025 27.333 785 
80.4725 27.333 785 
81.8425 27.333 785 
83.0005 27.2633 783 
84.3671 27.2633 783 
85.7336 27.2633 783 
87.8788 27.5071 790 
89.2575 27.5071 790 
92.1277 27.9597 803 
93.5291 27.9597 803 
95.167 28.0294 805 
96.5719 28.0294 805 
97.9768 28.0294 805 
99.3817 28.0294 805 
100.787 28.0294 805 
102.192 28.0294 805 
103.596 28.0294 805 
105.001 28.0294 805 
106.406 28.0294 805 
107.811 28.0294 805 
13.2839 31.8475 871 
14.804 31.8475 871 
16.3241 31.8475 871 
16.8609 30.0924 823 
18.2972 30.0924 823 
19.6855 30.0193 821 
21.1184 30.0193 821 
22.5512 30.0193 821 
23.984 30.0193 821 
25.4788 30.0924 823 
26.9805 30.1655 825 
28.4203 30.1655 825 
29.9325 30.2387 827 
31.3758 30.2387 827 
32.8985 30.3118 829 
34.3453 30.3118 829 
35.7921 30.3118 829 
37.2389 30.3118 829 
38.6857 30.3118 829 
40.1325 30.3118 829 
41.5793 30.3118 829 
43.0261 30.3118 829 
44.4729 30.3118 829 
45.9197 30.3118 829 
47.3665 30.3118 829 
48.8132 30.3118 829 
50.26 30.3118 829 
49.6485 29.1052 796 
51.0377 29.1052 796 
52.2952 29.0321 794 
53.6809 29.0321 794 
55.0666 29.0321 794 
56.3102 28.9589 792 
57.6924 28.9589 792 
58.9254 28.8858 790 
60.3042 28.8858 790 
61.6048 28.8492 789 
62.9818 28.8492 789 
64.1956 28.7761 787 
65.5691 28.7761 787 
66.9426 28.7761 787 
68.3161 28.7761 787 
69.6896 28.7761 787 
71.0631 28.7761 787 
72.2525 28.703 785 
73.6225 28.703 785 
74.9925 28.703 785 
76.3625 28.703 785 
77.7325 28.703 785 
79.1025 28.703 785 
80.4725 28.703 785 
81.8425 28.703 785 
83.2126 28.703 785 
84.5826 28.703 785 
85.9526 28.703 785 
88.3237 29.0321 794 
89.7094 29.0321 794 
92.1277 29.3611 803 
93.7621 29.4343 805 
95.167 29.4343 805 
96.5719 29.4343 805 
97.9768 29.4343 805 
99.3817 29.4343 805 
100.787 29.4343 805 
102.192 29.4343 805 
103.596 29.4343 805 
105.001 29.4343 805 
106.406 29.4343 805 
107.811 29.4343 805 
13.2839 33.3676 871 
14.804 33.3676 871 
16.3241 33.3676 871 
16.8609 31.5287 823 
18.2972 31.5287 823 
19.6855 31.4521 821 
21.1184 31.4521 821 
22.5512 31.4521 821 
23.984 31.4521 821 
25.4788 31.5287 823 
26.9151 31.5287 823 
28.4203 31.6054 825 
29.9325 31.682 827 
31.3758 31.682 827 
32.8191 31.682 827 
34.3453 31.7586 829 
35.7921 31.7586 829 
37.2389 31.7586 829 
38.6857 31.7586 829 
40.1325 31.7586 829 
41.5793 31.7586 829 
43.0261 31.7586 829 
44.4729 31.7586 829 
45.9197 31.7586 829 
47.2522 31.682 827 
48.6955 31.682 827 
50.1388 31.682 827 
51.5821 31.682 827 
51.0377 30.4944 796 
52.4269 30.4944 796 
53.8162 30.4944 796 
55.0666 30.4178 794 
56.4524 30.4178 794 
57.6924 30.3411 792 
58.9254 30.2645 790 
60.3042 30.2645 790 
61.6048 30.2262 789 
62.9818 30.2262 789 
64.1956 30.1496 787 
65.5691 30.1496 787 
66.9426 30.1496 787 
68.3161 30.1496 787 
69.6896 30.1496 787 
71.0631 30.1496 787 
72.4366 30.1496 787 
73.8101 30.1496 787 
75.1836 30.1496 787 
76.5571 30.1496 787 
77.9306 30.1496 787 
79.3041 30.1496 787 
80.4725 30.073 785 
81.8425 30.073 785 
83.2126 30.073 785 
84.7981 30.1496 787 
86.5 30.2645 790 
88.7687 30.571 798 
90.1614 30.571 798 
92.1277 30.7625 803 
93.7621 30.8392 805 
95.167 30.8392 805 
96.5719 30.8392 805 
97.9768 30.8392 805 
99.3817 30.8392 805 
100.787 30.8392 805 
102.192 30.8392 805 
103.596 30.8392 805 
105.001 30.8392 805 
106.406 30.8392 805 
11.7098 34.7275 867 
13.2229 34.7275 867 
14.77 34.8076 869 
16.3616 34.9678 873 
16.8609 32.9651 823 
18.2972 32.9651 823 
19.6855 32.885 821 
21.1184 32.885 821 
22.5512 32.885 821 
23.984 32.885 821 
25.4169 32.885 821 
26.9151 32.9651 823 
28.3514 32.9651 823 
29.8601 33.0452 825 
31.3758 33.1253 827 
32.8191 33.1253 827 
34.2624 33.1253 827 
35.7057 33.1253 827 
37.1491 33.1253 827 
38.6857 33.2054 829 
40.1325 33.2054 829 
41.479 33.1253 827 
42.9223 33.1253 827 
44.3656 33.1253 827 
45.8089 33.1253 827 
47.2522 33.1253 827 
48.5777 33.0452 825 
50.0175 33.0452 825 
51.4573 33.0452 825 
51.0377 31.8836 796 
52.4269 31.8836 796 
53.9514 31.9637 798 
55.3441 31.9637 798 
56.4524 31.8035 794 
57.6924 31.7234 792 
59.0746 31.7234 792 
60.3042 31.6433 790 
61.6829 31.6433 790 
62.9818 31.6032 789 
64.3588 31.6032 789 
65.7358 31.6032 789 
67.1127 31.6032 789 
68.4897 31.6032 789 
69.8667 31.6032 789 
71.2437 31.6032 789 
72.4366 31.5231 787 
73.8101 31.5231 787 
75.3747 31.6032 789 
76.5571 31.5231 787 
77.9306 31.5231 787 
79.3041 31.5231 787 
80.6776 31.5231 787 
82.0511 31.5231 787 
83.4246 31.5231 787 
84.7981 31.5231 787 
86.938 31.8035 794 
89.3249 32.164 803 
90.7263 32.164 803 
92.1277 32.164 803 
93.7621 32.2441 805 
95.167 32.2441 805 
96.5719 32.2441 805 
97.9768 32.2441 805 
99.3817 32.2441 805 
100.787 32.2441 805 
102.192 32.2441 805 
103.596 32.2441 805 
105.001 32.2441 805 
11.6693 36.1152 864 
13.1772 36.1152 864 
14.77 36.3242 869 
15.537 34.6522 829 
16.8609 34.4014 823 
18.2972 34.4014 823 
19.6855 34.3178 821 
21.1184 34.3178 821 
22.5512 34.3178 821 
23.984 34.3178 821 
25.4169 34.3178 821 
26.8497 34.3178 821 
28.2825 34.3178 821 
29.7878 34.4014 823 
31.3 34.485 825 
32.7398 34.485 825 
34.2624 34.5686 827 
35.7057 34.5686 827 
37.1491 34.5686 827 
38.5924 34.5686 827 
40.0357 34.5686 827 
41.479 34.5686 827 
42.9223 34.5686 827 
44.3656 34.5686 827 
45.6981 34.485 825 
47.1379 34.485 825 
48.5777 34.485 825 
50.0175 34.485 825 
51.3326 34.4014 823 
52.7689 34.4014 823 
52.6904 33.44 800 
53.9514 33.3564 798 
55.3441 33.3564 798 
56.5946 33.2728 796 
57.8381 33.1892 794 
59.0746 33.1056 792 
60.4568 33.1056 792 
61.839 33.1056 792 
63.0616 33.022 790 
64.4403 33.022 790 
65.8191 33.022 790 
67.1978 33.022 790 
68.5765 33.022 790 
69.9553 33.022 790 
71.334 33.022 790 
72.6207 32.9802 789 
73.9977 32.9802 789 
75.3747 32.9802 789 
76.7516 32.9802 789 
78.1286 32.9802 789 
79.5056 32.9802 789 
80.8826 32.9802 789 
82.2596 32.9802 789 
83.6366 32.9802 789 
85.3368 33.1056 792 
87.157 33.2728 796 
89.2136 33.5236 802 
90.7263 33.5654 803 
92.1277 33.5654 803 
93.7621 33.649 805 
95.167 33.649 805 
96.5719 33.649 805 
97.9768 33.649 805 
99.3817 33.649 805 
100.787 33.649 805 
102.192 33.649 805 
103.596 33.649 805 
11.6693 37.6231 864 
13.1772 37.6231 864 
14.1582 36.2732 833 
15.537 36.099 829 
16.9018 35.9248 825 
18.2972 35.8377 823 
19.6855 35.7506 821 
21.1184 35.7506 821 
22.5512 35.7506 821 
23.984 35.7506 821 
25.4169 35.7506 821 
26.8497 35.7506 821 
28.2825 35.7506 821 
29.7154 35.7506 821 
31.2241 35.8377 823 
32.7398 35.9248 825 
34.1796 35.9248 825 
35.6194 35.9248 825 
37.0592 35.9248 825 
38.499 35.9248 825 
39.9388 35.9248 825 
41.3787 35.9248 825 
42.8185 35.9248 825 
44.2583 35.9248 825 
45.6981 35.9248 825 
47.1379 35.9248 825 
48.46 35.8377 823 
49.8963 35.8377 823 
51.2079 35.7506 821 
52.6407 35.7506 821 
54.0735 35.7506 821 
53.9514 34.7491 798 
55.3441 34.7491 798 
56.7368 34.7491 798 
57.9838 34.662 796 
59.2238 34.5749 794 
60.4568 34.4878 792 
61.839 34.4878 792 
63.2213 34.4878 792 
64.4403 34.4007 790 
65.8191 34.4007 790 
67.1978 34.4007 790 
68.5765 34.4007 790 
69.9553 34.4007 790 
71.334 34.4007 790 
72.7127 34.4007 790 
74.0915 34.4007 790 
75.4702 34.4007 790 
76.8489 34.4007 790 
78.2276 34.4007 790 
79.6064 34.4007 790 
80.9851 34.4007 790 
82.5724 34.4878 792 
83.9546 34.4878 792 
85.5523 34.5749 794 
87.376 34.7491 798 
89.2136 34.9233 802 
90.7263 34.9668 803 
92.1277 34.9668 803 
93.5291 34.9668 803 
95.167 35.0539 805 
96.5719 35.0539 805 
97.9768 35.0539 805 
99.3817 35.0539 805 
100.787 35.0539 805 
102.192 35.0539 805 
103.596 35.0539 805 
11.6693 39.1309 864 
13.1772 39.1309 864 
14.1582 37.7269 833 
15.537 37.5458 829 
16.9018 37.3646 825 
18.2972 37.274 823 
19.6855 37.1834 821 
21.1184 37.1834 821 
22.5512 37.1834 821 
23.984 37.1834 821 
25.4169 37.1834 821 
26.8497 37.1834 821 
28.2825 37.1834 821 
29.7154 37.1834 821 
31.1482 37.1834 821 
32.6604 37.274 823 
34.0967 37.274 823 
35.5331 37.274 823 
36.9694 37.274 823 
38.499 37.3646 825 
39.9388 37.3646 825 
41.2783 37.274 823 
42.7147 37.274 823 
44.151 37.274 823 
45.5873 37.274 823 
46.9094 37.1834 821 
48.3422 37.1834 821 
49.775 37.1834 821 
51.2079 37.1834 821 
52.6407 37.1834 821 
54.0735 37.1834 821 
55.5064 37.1834 821 
55.3441 36.1418 798 
56.7368 36.1418 798 
57.9838 36.0512 796 
59.2238 35.9606 794 
60.6095 35.9606 794 
61.839 35.87 792 
63.2213 35.87 792 
64.4403 35.7794 790 
65.8191 35.7794 790 
67.1978 35.7794 790 
68.5765 35.7794 790 
69.9553 35.7794 790 
71.334 35.7794 790 
72.7127 35.7794 790 
74.0915 35.7794 790 
75.4702 35.7794 790 
76.8489 35.7794 790 
78.4257 35.87 792 
79.8079 35.87 792 
81.3952 35.9606 794 
82.9894 36.0512 796 
84.5906 36.1418 798 
85.9833 36.1418 798 
87.376 36.1418 798 
89.2136 36.3229 802 
90.7263 36.3682 803 
92.1277 36.3682 803 
93.5291 36.3682 803 
95.167 36.4588 805 
96.5719 36.4588 805 
97.9768 36.4588 805 
99.3817 36.4588 805 
100.787 36.4588 805 
102.192 36.4588 805 
103.596 36.4588 805 
105.001 36.4588 805 
11.6423 40.5447 862 
13.1467 40.5447 862 
14.6511 40.5447 862 
15.462 38.8044 825 
16.8609 38.7104 823 
18.2972 38.7104 823 
19.6855 38.6163 821 
21.1184 38.6163 821 
22.5512 38.6163 821 
23.9256 38.5222 819 
25.355 38.5222 819 
26.7843 38.5222 819 
28.2825 38.6163 821 
29.7154 38.6163 821 
31.1482 38.6163 821 
32.581 38.6163 821 
34.0139 38.6163 821 
35.4467 38.6163 821 
36.9694 38.7104 823 
38.4057 38.7104 823 
39.842 38.7104 823 
41.2783 38.7104 823 
42.7147 38.7104 823 
44.0437 38.6163 821 
45.4765 38.6163 821 
46.9094 38.6163 821 
48.3422 38.6163 821 
49.775 38.6163 821 
51.0831 38.5222 819 
52.5125 38.5222 819 
53.9418 38.5222 819 
55.5064 38.6163 821 
56.9392 38.6163 821 
56.4524 37.3463 794 
57.8381 37.3463 794 
59.2238 37.3463 794 
60.6095 37.3463 794 
61.9952 37.3463 794 
63.3809 37.3463 794 
64.6035 37.2522 792 
65.9857 37.2522 792 
67.3679 37.2522 792 
68.7501 37.2522 792 
70.1324 37.2522 792 
71.5146 37.2522 792 
72.8968 37.2522 792 
74.279 37.2522 792 
75.6612 37.2522 792 
77.0435 37.2522 792 
78.4257 37.2522 792 
80.0094 37.3463 794 
81.3952 37.3463 794 
82.9894 37.4404 796 
84.5906 37.5345 798 
85.9833 37.5345 798 
87.595 37.6285 800 
89.2136 37.7226 802 
90.7263 37.7696 803 
92.1277 37.7696 803 
93.7621 37.8637 805 
95.167 37.8637 805 
96.5719 37.8637 805 
97.9768 37.8637 805 
99.1348 37.7696 803 
100.536 37.7696 803 
102.192 37.8637 805 
103.596 37.8637 805 
105.001 37.8637 805 
11.6423 42.0491 862 
13.1467 42.0491 862 
14.6511 42.0491 862 
15.462 40.2442 825 
16.8609 40.1467 823 
18.2972 40.1467 823 
19.6855 40.0491 821 
21.1184 40.0491 821 
22.5512 40.0491 821 
23.9256 39.9516 819 
25.355 39.9516 819 
26.7843 39.9516 819 
28.2136 39.9516 819 
29.643 39.9516 819 
31.1482 40.0491 821 
32.581 40.0491 821 
34.0139 40.0491 821 
35.4467 40.0491 821 
36.8795 40.0491 821 
38.4057 40.1467 823 
39.842 40.1467 823 
41.178 40.0491 821 
42.6109 40.0491 821 
44.0437 40.0491 821 
45.4765 40.0491 821 
46.7951 39.9516 819 
48.2244 39.9516 819 
49.6538 39.9516 819 
51.0831 39.9516 819 
52.5125 39.9516 819 
53.9418 39.9516 819 
55.5064 40.0491 821 
56.9392 40.0491 821 
56.4524 38.732 794 
57.8381 38.732 794 
59.373 38.8296 796 
60.7622 38.8296 796 
62.1514 38.8296 796 
63.3809 38.732 794 
64.6035 38.6345 792 
65.9857 38.6345 792 
67.3679 38.6345 792 
68.7501 38.6345 792 
70.1324 38.6345 792 
71.5146 38.6345 792 
72.8968 38.6345 792 
74.279 38.6345 792 
75.6612 38.6345 792 
77.0435 38.6345 792 
78.4257 38.6345 792 
80.0094 38.732 794 
81.6002 38.8296 796 
83.1979 38.9272 798 
84.5906 38.9272 798 
85.9833 38.9272 798 
87.595 39.0247 800 
89.3249 39.1711 803 
90.7263 39.1711 803 
92.1277 39.1711 803 
93.7621 39.2686 805 
95.167 39.2686 805 
96.5719 39.2686 805 
97.7334 39.1711 803 
99.1348 39.1711 803 
100.536 39.1711 803 
102.192 39.2686 805 
103.596 39.2686 805 
105.001 39.2686 805 
11.6423 43.5535 862 
13.1467 43.5535 862 
14.0562 41.7851 827 
15.462 41.6841 825 
16.8609 41.583 823 
18.2527 41.4819 821 
19.6855 41.4819 821 
21.1184 41.4819 821 
22.5512 41.4819 821 
23.9256 41.3809 819 
25.355 41.3809 819 
26.7843 41.3809 819 
28.2136 41.3809 819 
29.643 41.3809 819 
31.1482 41.4819 821 
32.581 41.4819 821 
34.0139 41.4819 821 
35.4467 41.4819 821 
36.8795 41.4819 821 
38.3124 41.4819 821 
39.7452 41.4819 821 
41.178 41.4819 821 
42.6109 41.4819 821 
43.9364 41.3809 819 
45.3657 41.3809 819 
46.7951 41.3809 819 
48.2244 41.3809 819 
49.6538 41.3809 819 
51.0831 41.3809 819 
52.5125 41.3809 819 
53.9418 41.3809 819 
55.5064 41.4819 821 
56.9392 41.4819 821 
58.372 41.4819 821 
59.8049 41.4819 821 
59.5221 40.3198 798 
60.9148 40.3198 798 
62.3075 40.3198 798 
63.5406 40.2188 796 
64.7666 40.1177 794 
66.1523 40.1177 794 
67.3679 40.0167 792 
68.7501 40.0167 792 
70.1324 40.0167 792 
71.5146 40.0167 792 
72.8968 40.0167 792 
74.279 40.0167 792 
75.6612 40.0167 792 
77.0435 40.0167 792 
78.6237 40.1177 794 
80.0094 40.1177 794 
81.6002 40.2188 796 
83.1979 40.3198 798 
84.5906 40.3198 798 
85.9833 40.3198 798 
87.595 40.4209 800 
89.3249 40.5725 803 
90.9523 40.6735 805 
92.3572 40.6735 805 
93.7621 40.6735 805 
95.167 40.6735 805 
96.5719 40.6735 805 
97.7334 40.5725 803 
99.1348 40.5725 803 
100.536 40.5725 803 
102.192 40.6735 805 
103.854 40.7746 807 
105.262 40.7746 807 
115.395 44.1093 873 
11.6423 45.0579 862 
13.1467 45.0579 862 
14.0562 43.2284 827 
15.462 43.1239 825 
16.8609 43.0193 823 
18.2527 42.9148 821 
19.6855 42.9148 821 
21.1184 42.9148 821 
22.5512 42.9148 821 
23.9256 42.8102 819 
25.355 42.8102 819 
26.7843 42.8102 819 
28.2136 42.8102 819 
29.643 42.8102 819 
31.1482 42.9148 821 
32.581 42.9148 821 
34.0139 42.9148 821 
35.4467 42.9148 821 
36.8795 42.9148 821 
38.3124 42.9148 821 
39.7452 42.9148 821 
41.178 42.9148 821 
42.5071 42.8102 819 
43.9364 42.8102 819 
45.3657 42.8102 819 
46.7951 42.8102 819 
48.2244 42.8102 819 
49.6538 42.8102 819 
51.0831 42.8102 819 
52.5125 42.8102 819 
53.9418 42.8102 819 
55.5064 42.9148 821 
56.9392 42.9148 821 
58.372 42.9148 821 
59.8049 42.9148 821 
61.2377 42.9148 821 
62.6705 42.9148 821 
62.3075 41.7125 798 
63.7002 41.7125 798 
64.9298 41.608 796 
66.1523 41.5035 794 
67.538 41.5035 794 
68.7501 41.3989 792 
70.1324 41.3989 792 
71.5146 41.3989 792 
72.8968 41.3989 792 
74.279 41.3989 792 
75.6612 41.3989 792 
77.238 41.5035 794 
78.6237 41.5035 794 
80.211 41.608 796 
81.8052 41.7125 798 
83.1979 41.7125 798 
84.5906 41.7125 798 
86.1988 41.8171 800 
88.1424 42.0784 805 
89.5473 42.0784 805 
90.9523 42.0784 805 
92.5866 42.183 807 
93.995 42.183 807 
95.4034 42.183 807 
96.8118 42.183 807 
98.2202 42.183 807 
102.345 43.333 829 
103.791 43.333 829 
105.492 43.4375 831 
106.942 43.4375 831 
108.393 43.4375 831 
115.395 45.6329 873 
11.6423 46.5623 862 
13.1467 46.5623 862 
14.0562 44.6717 827 
15.462 44.5637 825 
16.8609 44.4556 823 
18.2972 44.4556 823 
19.6855 44.3476 821 
21.1184 44.3476 821 
22.5512 44.3476 821 
23.9256 44.2396 819 
25.355 44.2396 819 
26.7843 44.2396 819 
28.2136 44.2396 819 
29.643 44.2396 819 
31.1482 44.3476 821 
32.581 44.3476 821 
34.0139 44.3476 821 
35.4467 44.3476 821 
36.8795 44.3476 821 
38.3124 44.3476 821 
39.6484 44.2396 819 
41.0777 44.2396 819 
42.5071 44.2396 819 
43.9364 44.2396 819 
45.3657 44.2396 819 
46.6808 44.1315 817 
48.1067 44.1315 817 
49.5325 44.1315 817 
50.9584 44.1315 817 
52.3842 44.1315 817 
53.8101 44.1315 817 
55.5064 44.3476 821 
56.9392 44.3476 821 
58.372 44.3476 821 
59.8049 44.3476 821 
61.0885 44.2396 819 
62.5178 44.2396 819 
63.9472 44.2396 819 
65.2169 44.1315 817 
64.9298 42.9972 796 
66.1523 42.8892 794 
67.538 42.8892 794 
68.7501 42.7811 792 
70.1324 42.7811 792 
71.5146 42.7811 792 
72.8968 42.7811 792 
74.279 42.7811 792 
75.6612 42.7811 792 
77.0435 42.7811 792 
78.4257 42.7811 792 
80.0094 42.8892 794 
81.8052 43.1052 798 
83.1979 43.1052 798 
84.8026 43.2133 800 
86.4143 43.3213 802 
88.5804 43.6994 809 
89.9923 43.6994 809 
91.4042 43.6994 809 
93.275 43.9155 813 
94.9268 44.0235 815 
96.3492 44.0235 815 
99.2111 44.6717 827 
100.898 44.7797 829 
102.345 44.7797 829 
103.791 44.7797 829 
105.492 44.8878 831 
106.942 44.8878 831 
108.393 44.8878 831 
109.843 44.8878 831 
11.6153 47.9552 860 
13.1162 47.9552 860 
14.0562 46.115 827 
15.462 46.0035 825 
16.8609 45.892 823 
18.2972 45.892 823 
19.6855 45.7804 821 
21.1184 45.7804 821 
22.5512 45.7804 821 
23.984 45.7804 821 
25.355 45.6689 819 
26.7843 45.6689 819 
28.2136 45.6689 819 
29.643 45.6689 819 
31.1482 45.7804 821 
32.581 45.7804 821 
34.0139 45.7804 821 
35.4467 45.7804 821 
36.8795 45.7804 821 
38.3124 45.7804 821 
39.6484 45.6689 819 
41.0777 45.6689 819 
42.5071 45.6689 819 
43.8291 45.5574 817 
45.255 45.5574 817 
46.6808 45.5574 817 
48.1067 45.5574 817 
49.5325 45.5574 817 
50.9584 45.5574 817 
52.3842 45.5574 817 
53.8101 45.5574 817 
55.5064 45.7804 821 
56.9392 45.7804 821 
58.372 45.7804 821 
59.8049 45.7804 821 
61.0885 45.6689 819 
62.5178 45.6689 819 
63.9472 45.6689 819 
65.2169 45.5574 817 
66.6427 45.5574 817 
66.4856 44.4979 798 
67.538 44.2749 794 
68.9238 44.2749 794 
70.1324 44.1634 792 
71.5146 44.1634 792 
72.8968 44.1634 792 
74.279 44.1634 792 
75.6612 44.1634 792 
77.0435 44.1634 792 
78.4257 44.1634 792 
80.0094 44.2749 794 
81.3952 44.2749 794 
83.6149 44.721 802 
85.0146 44.721 802 
87.815 45.4459 815 
89.2374 45.4459 815 
90.6597 45.4459 815 
92.534 45.6689 819 
93.9634 45.6689 819 
95.8586 45.892 823 
97.5314 46.0035 825 
99.2111 46.115 827 
100.654 46.115 827 
102.345 46.2265 829 
103.791 46.2265 829 
105.746 46.4496 833 
106.942 46.3381 831 
108.393 46.3381 831 
109.843 46.3381 831 
13.0857 49.341 858 
14.5831 49.341 858 
15.462 47.4433 825 
16.8609 47.3283 823 
18.2972 47.3283 823 
19.6855 47.2133 821 
21.1184 47.2133 821 
22.5512 47.2133 821 
23.984 47.2133 821 
25.355 47.0983 819 
26.7843 47.0983 819 
28.2136 47.0983 819 
29.643 47.0983 819 
31.1482 47.2133 821 
32.581 47.2133 821 
34.0139 47.2133 821 
35.4467 47.2133 821 
36.8795 47.2133 821 
38.219 47.0983 819 
39.6484 47.0983 819 
41.0777 47.0983 819 
42.5071 47.0983 819 
43.8291 46.9832 817 
45.255 46.9832 817 
46.6808 46.9832 817 
48.1067 46.9832 817 
49.5325 46.9832 817 
50.9584 46.9832 817 
52.3842 46.9832 817 
53.8101 46.9832 817 
55.3711 47.0983 819 
56.8005 47.0983 819 
58.372 47.2133 821 
59.8049 47.2133 821 
61.0885 47.0983 819 
62.5178 47.0983 819 
63.9472 47.0983 819 
65.3765 47.0983 819 
66.6427 46.9832 817 
67.902 46.8682 815 
69.3243 46.8682 815 
70.9203 46.9832 817 
72.5232 47.0983 819 
73.9526 47.0983 819 
73.0809 45.6606 794 
74.4666 45.6606 794 
78.2406 47.0983 819 
79.67 47.0983 819 
81.0993 47.0983 819 
82.5286 47.0983 819 
83.753 46.9832 817 
84.9703 46.8682 815 
86.3926 46.8682 815 
88.246 47.0983 819 
89.6753 47.0983 819 
91.1047 47.0983 819 
92.76 47.2133 821 
94.1928 47.2133 821 
95.8586 47.3283 823 
97.5314 47.4433 825 
99.2111 47.5583 827 
100.654 47.5583 827 
102.345 47.6733 829 
103.791 47.6733 829 
105.746 47.9034 833 
107.2 47.9034 833 
108.654 47.9034 833 
110.107 47.9034 833 
13.0857 50.8384 858 
14.5831 50.8384 858 
15.4995 49.0016 827 
16.8609 48.7646 823 
18.2972 48.7646 823 
19.6855 48.6461 821 
21.1184 48.6461 821 
22.5512 48.6461 821 
23.984 48.6461 821 
25.4169 48.6461 821 
26.8497 48.6461 821 
28.2825 48.6461 821 
29.7154 48.6461 821 
31.1482 48.6461 821 
32.581 48.6461 821 
34.0139 48.6461 821 
35.3604 48.5276 819 
36.7897 48.5276 819 
38.219 48.5276 819 
39.6484 48.5276 819 
41.0777 48.5276 819 
42.5071 48.5276 819 
43.8291 48.4091 817 
45.255 48.4091 817 
46.6808 48.4091 817 
48.1067 48.4091 817 
49.5325 48.4091 817 
50.9584 48.4091 817 
52.3842 48.4091 817 
53.8101 48.4091 817 
55.3711 48.5276 819 
56.8005 48.5276 819 
58.2298 48.5276 819 
59.6592 48.5276 819 
61.0885 48.5276 819 
62.5178 48.5276 819 
63.9472 48.5276 819 
65.3765 48.5276 819 
66.8059 48.5276 819 
68.0686 48.4091 817 
69.4944 48.4091 817 
70.9203 48.4091 817 
72.5232 48.5276 819 
73.9526 48.5276 819 
75.3819 48.5276 819 
76.8113 48.5276 819 
78.2406 48.5276 819 
79.67 48.5276 819 
81.0993 48.5276 819 
82.5286 48.5276 819 
83.753 48.4091 817 
85.1788 48.4091 817 
86.6047 48.4091 817 
88.246 48.5276 819 
89.6753 48.5276 819 
91.3272 48.6461 821 
92.986 48.7646 823 
94.4223 48.7646 823 
95.8586 48.7646 823 
97.5314 48.8831 825 
99.2111 49.0016 827 
100.654 49.0016 827 
102.345 49.1201 829 
103.791 49.1201 829 
105.746 49.3571 833 
107.2 49.3571 833 
108.654 49.3571 833 
110.372 49.4756 835 
13.0552 52.2139 856 
14.5491 52.2139 856 
15.462 50.3229 825 
16.8609 50.2009 823 
18.2972 50.2009 823 
19.7335 50.2009 823 
21.1184 50.0789 821 
22.5512 50.0789 821 
23.984 50.0789 821 
25.4169 50.0789 821 
26.8497 50.0789 821 
28.2825 50.0789 821 
29.7154 50.0789 821 
31.1482 50.0789 821 
32.581 50.0789 821 
33.931 49.9569 819 
35.3604 49.9569 819 
36.7897 49.9569 819 
38.219 49.9569 819 
39.6484 49.9569 819 
41.0777 49.9569 819 
42.5071 49.9569 819 
43.8291 49.835 817 
45.255 49.835 817 
46.6808 49.835 817 
48.1067 49.835 817 
49.5325 49.835 817 
50.9584 49.835 817 
52.3842 49.835 817 
53.8101 49.835 817 
55.3711 49.9569 819 
56.8005 49.9569 819 
58.2298 49.9569 819 
59.6592 49.9569 819 
61.0885 49.9569 819 
62.5178 49.9569 819 
63.9472 49.9569 819 
65.3765 49.9569 819 
66.8059 49.9569 819 
68.2352 49.9569 819 
69.6646 49.9569 819 
71.0939 49.9569 819 
72.5232 49.9569 819 
74.1332 50.0789 821 
75.3819 49.9569 819 
76.8113 49.9569 819 
78.2406 49.9569 819 
79.67 49.9569 819 
81.0993 49.9569 819 
82.5286 49.9569 819 
83.958 49.9569 819 
85.3873 49.9569 819 
86.8167 49.9569 819 
88.4615 50.0789 821 
89.8943 50.0789 821 
91.5496 50.2009 823 
92.986 50.2009 823 
94.4223 50.2009 823 
96.0916 50.3229 825 
97.5314 50.3229 825 
99.2111 50.4449 827 
100.654 50.4449 827 
102.345 50.5669 829 
103.791 50.5669 829 
105.746 50.8109 833 
107.2 50.8109 833 
108.914 50.9329 835 
110.372 50.9329 835 
12.9789 53.3941 851 
14.4641 53.3941 851 
15.462 51.7627 825 
16.8609 51.6373 823 
18.2972 51.6373 823 
19.7335 51.6373 823 
21.1184 51.5118 821 
22.5512 51.5118 821 
23.984 51.5118 821 
25.4169 51.5118 821 
26.8497 51.5118 821 
28.2825 51.5118 821 
29.7154 51.5118 821 
31.0723 51.3863 819 
32.5017 51.3863 819 
33.931 51.3863 819 
35.3604 51.3863 819 
36.7897 51.3863 819 
38.219 51.3863 819 
39.6484 51.3863 819 
41.0777 51.3863 819 
42.5071 51.3863 819 
43.9364 51.3863 819 
45.3657 51.3863 819 
46.6808 51.2608 817 
48.1067 51.2608 817 
49.5325 51.2608 817 
50.9584 51.2608 817 
52.3842 51.2608 817 
53.8101 51.2608 817 
55.3711 51.3863 819 
56.8005 51.3863 819 
58.2298 51.3863 819 
59.6592 51.3863 819 
61.0885 51.3863 819 
62.5178 51.3863 819 
63.9472 51.3863 819 
65.3765 51.3863 819 
66.8059 51.3863 819 
68.2352 51.3863 819 
69.6646 51.3863 819 
71.0939 51.3863 819 
72.5232 51.3863 819 
74.1332 51.5118 821 
75.566 51.5118 821 
76.9988 51.5118 821 
78.4317 51.5118 821 
79.8645 51.5118 821 
81.2973 51.5118 821 
82.7302 51.5118 821 
84.163 51.5118 821 
85.5958 51.5118 821 
87.0287 51.5118 821 
88.677 51.6373 823 
90.1133 51.6373 823 
91.5496 51.6373 823 
92.986 51.6373 823 
94.4223 51.6373 823 
96.0916 51.7627 825 
97.5314 51.7627 825 
99.2111 51.8882 827 
100.654 51.8882 827 
102.345 52.0137 829 
103.791 52.0137 829 
105.746 52.2647 833 
107.2 52.2647 833 
108.914 52.3902 835 
110.372 52.3902 835 
14.4301 54.7503 849 
15.4995 53.3315 827 
16.9018 53.2026 825 
18.3416 53.2026 825 
19.7335 53.0736 823 
21.1698 53.0736 823 
22.5512 52.9446 821 
23.984 52.9446 821 
25.4169 52.9446 821 
26.8497 52.9446 821 
28.2825 52.9446 821 
29.7154 52.9446 821 
31.0723 52.8156 819 
32.5017 52.8156 819 
33.931 52.8156 819 
35.3604 52.8156 819 
36.7897 52.8156 819 
38.219 52.8156 819 
39.6484 52.8156 819 
40.9774 52.6867 817 
42.4033 52.6867 817 
43.8291 52.6867 817 
45.3657 52.8156 819 
46.7951 52.8156 819 
48.2244 52.8156 819 
49.5325 52.6867 817 
50.9584 52.6867 817 
52.3842 52.6867 817 
53.8101 52.6867 817 
55.3711 52.8156 819 
56.8005 52.8156 819 
58.2298 52.8156 819 
59.6592 52.8156 819 
61.0885 52.8156 819 
62.5178 52.8156 819 
63.9472 52.8156 819 
65.3765 52.8156 819 
66.8059 52.8156 819 
68.2352 52.8156 819 
69.6646 52.8156 819 
71.0939 52.8156 819 
72.5232 52.8156 819 
74.1332 52.9446 821 
75.566 52.9446 821 
76.9988 52.9446 821 
78.4317 52.9446 821 
79.8645 52.9446 821 
81.2973 52.9446 821 
82.7302 52.9446 821 
84.163 52.9446 821 
85.5958 52.9446 821 
87.0287 52.9446 821 
88.677 53.0736 823 
90.1133 53.0736 823 
91.5496 53.0736 823 
93.2119 53.2026 825 
94.6517 53.2026 825 
96.0916 53.2026 825 
97.7678 53.3315 827 
99.2111 53.3315 827 
100.654 53.3315 827 
102.345 53.4605 829 
103.791 53.4605 829 
105.746 53.7185 833 
107.2 53.7185 833 
108.914 53.8474 835 
110.372 53.8474 835 
14.3961 56.0995 847 
15.8743 56.0995 847 
16.9428 54.7748 827 
18.3416 54.6424 825 
19.7815 54.6424 825 
21.1698 54.5099 823 
22.6061 54.5099 823 
23.984 54.3774 821 
25.4169 54.3774 821 
26.8497 54.3774 821 
28.2825 54.3774 821 
29.7154 54.3774 821 
31.0723 54.245 819 
32.5017 54.245 819 
33.931 54.245 819 
35.3604 54.245 819 
36.7897 54.245 819 
38.219 54.245 819 
39.6484 54.245 819 
40.9774 54.1125 817 
42.4033 54.1125 817 
43.8291 54.1125 817 
45.3657 54.245 819 
46.7951 54.245 819 
48.2244 54.245 819 
49.5325 54.1125 817 
50.9584 54.1125 817 
52.3842 54.1125 817 
53.8101 54.1125 817 
55.3711 54.245 819 
56.8005 54.245 819 
58.2298 54.245 819 
59.6592 54.245 819 
61.0885 54.245 819 
62.5178 54.245 819 
64.1033 54.3774 821 
65.5362 54.3774 821 
66.8059 54.245 819 
68.2352 54.245 819 
69.6646 54.245 819 
71.0939 54.245 819 
72.5232 54.245 819 
73.9526 54.245 819 
75.566 54.3774 821 
76.9988 54.3774 821 
78.4317 54.3774 821 
79.8645 54.3774 821 
81.2973 54.3774 821 
82.7302 54.3774 821 
84.163 54.3774 821 
85.5958 54.3774 821 
87.2407 54.5099 823 
88.677 54.5099 823 
90.1133 54.5099 823 
91.7721 54.6424 825 
93.2119 54.6424 825 
94.6517 54.6424 825 
96.0916 54.6424 825 
97.7678 54.7748 827 
99.2111 54.7748 827 
100.898 54.9073 829 
102.345 54.9073 829 
104.042 55.0398 831 
105.746 55.1722 833 
107.2 55.1722 833 
108.914 55.3047 835 
110.372 55.3047 835 
15.7994 57.3058 843 
16.9428 56.2181 827 
18.3861 56.2181 827 
19.8294 56.2181 827 
21.2213 56.0822 825 
22.6061 55.9462 823 
24.0425 55.9462 823 
25.4788 55.9462 823 
26.8497 55.8103 821 
28.2825 55.8103 821 
29.7154 55.8103 821 
31.0723 55.6743 819 
32.5017 55.6743 819 
33.931 55.6743 819 
35.3604 55.6743 819 
36.7897 55.6743 819 
38.219 55.6743 819 
39.6484 55.6743 819 
41.0777 55.6743 819 
42.5071 55.6743 819 
43.9364 55.6743 819 
45.3657 55.6743 819 
46.7951 55.6743 819 
48.2244 55.6743 819 
49.6538 55.6743 819 
50.9584 55.5384 817 
52.3842 55.5384 817 
53.8101 55.5384 817 
55.3711 55.6743 819 
56.8005 55.6743 819 
58.2298 55.6743 819 
59.6592 55.6743 819 
61.0885 55.6743 819 
62.5178 55.6743 819 
64.1033 55.8103 821 
65.5362 55.8103 821 
66.969 55.8103 821 
68.4018 55.8103 821 
69.6646 55.6743 819 
71.0939 55.6743 819 
72.5232 55.6743 819 
73.9526 55.6743 819 
75.566 55.8103 821 
76.9988 55.8103 821 
78.4317 55.8103 821 
79.8645 55.8103 821 
81.2973 55.8103 821 
82.7302 55.8103 821 
84.163 55.8103 821 
85.8044 55.9462 823 
87.2407 55.9462 823 
88.677 55.9462 823 
90.1133 55.9462 823 
91.7721 56.0822 825 
93.2119 56.0822 825 
94.6517 56.0822 825 
96.0916 56.0822 825 
97.7678 56.2181 827 
99.2111 56.2181 827 
100.898 56.3541 829 
102.345 56.3541 829 
104.042 56.4901 831 
105.746 56.626 833 
107.2 56.626 833 
108.914 56.762 835 
110.372 56.762 835 
15.7994 58.777 843 
16.9838 57.8009 829 
18.3861 57.6614 827 
19.8294 57.6614 827 
21.2213 57.522 825 
22.6611 57.522 825 
24.0425 57.3826 823 
25.4788 57.3826 823 
26.8497 57.2431 821 
28.2825 57.2431 821 
29.7154 57.2431 821 
31.0723 57.1037 819 
32.5017 57.1037 819 
33.931 57.1037 819 
35.3604 57.1037 819 
36.7897 57.1037 819 
38.219 57.1037 819 
39.6484 57.1037 819 
41.0777 57.1037 819 
42.5071 57.1037 819 
43.9364 57.1037 819 
45.3657 57.1037 819 
46.7951 57.1037 819 
48.2244 57.1037 819 
49.6538 57.1037 819 
50.9584 56.9642 817 
52.3842 56.9642 817 
53.8101 56.9642 817 
55.3711 57.1037 819 
56.8005 57.1037 819 
58.2298 57.1037 819 
59.6592 57.1037 819 
61.0885 57.1037 819 
62.5178 57.1037 819 
64.1033 57.2431 821 
65.5362 57.2431 821 
66.969 57.2431 821 
68.4018 57.2431 821 
69.8347 57.2431 821 
71.0939 57.1037 819 
72.5232 57.1037 819 
74.1332 57.2431 821 
75.566 57.2431 821 
76.9988 57.2431 821 
78.4317 57.2431 821 
79.8645 57.2431 821 
81.2973 57.2431 821 
82.9317 57.3826 823 
84.368 57.3826 823 
85.8044 57.3826 823 
87.2407 57.3826 823 
88.677 57.3826 823 
90.3323 57.522 825 
91.7721 57.522 825 
93.2119 57.522 825 
94.8812 57.6614 827 
96.3245 57.6614 827 
97.7678 57.6614 827 
99.2111 57.6614 827 
100.898 57.8009 829 
102.345 57.8009 829 
104.042 57.9403 831 
105.746 58.0798 833 
107.457 58.2192 835 
108.914 58.2192 835 
17.1067 59.6765 835 
18.4306 59.2477 829 
19.8294 59.1048 827 
21.2727 59.1048 827 
22.6611 58.9618 825 
24.0425 58.8189 823 
25.4788 58.8189 823 
26.8497 58.6759 821 
28.2825 58.6759 821 
29.7154 58.6759 821 
31.1482 58.6759 821 
32.5017 58.533 819 
33.931 58.533 819 
35.3604 58.533 819 
36.7897 58.533 819 
38.219 58.533 819 
39.6484 58.533 819 
41.0777 58.533 819 
42.5071 58.533 819 
43.9364 58.533 819 
45.3657 58.533 819 
46.7951 58.533 819 
48.2244 58.533 819 
49.6538 58.533 819 
50.9584 58.3901 817 
52.3842 58.3901 817 
53.8101 58.3901 817 
55.3711 58.533 819 
56.8005 58.533 819 
58.2298 58.533 819 
59.6592 58.533 819 
61.0885 58.533 819 
62.6705 58.6759 821 
64.1033 58.6759 821 
65.5362 58.6759 821 
66.969 58.6759 821 
68.4018 58.6759 821 
69.8347 58.6759 821 
71.2675 58.6759 821 
72.7003 58.6759 821 
74.1332 58.6759 821 
75.566 58.6759 821 
76.9988 58.6759 821 
78.4317 58.6759 821 
79.8645 58.6759 821 
81.2973 58.6759 821 
82.9317 58.8189 823 
84.368 58.8189 823 
85.8044 58.8189 823 
87.2407 58.8189 823 
88.8925 58.9618 825 
90.3323 58.9618 825 
91.7721 58.9618 825 
93.4379 59.1048 827 
94.8812 59.1048 827 
96.3245 59.1048 827 
97.7678 59.1048 827 
99.2111 59.1048 827 
100.898 59.2477 829 
102.345 59.2477 829 
104.042 59.3906 831 
105.746 59.5336 833 
107.457 59.6765 835 
108.914 59.6765 835 
18.4306 60.6945 829 
19.8774 60.6945 829 
21.2727 60.5481 827 
22.716 60.5481 827 
24.1009 60.4016 825 
25.4788 60.2552 823 
26.9151 60.2552 823 
28.2825 60.1088 821 
29.7154 60.1088 821 
31.1482 60.1088 821 
32.5017 59.9623 819 
33.931 59.9623 819 
35.3604 59.9623 819 
36.7897 59.9623 819 
38.219 59.9623 819 
39.6484 59.9623 819 
41.0777 59.9623 819 
42.5071 59.9623 819 
43.9364 59.9623 819 
45.3657 59.9623 819 
46.7951 59.9623 819 
48.2244 59.9623 819 
49.5325 59.8159 817 
50.9584 59.8159 817 
52.3842 59.8159 817 
53.8101 59.8159 817 
55.3711 59.9623 819 
56.8005 59.9623 819 
58.2298 59.9623 819 
59.8049 60.1088 821 
61.2377 60.1088 821 
62.6705 60.1088 821 
64.1033 60.1088 821 
65.5362 60.1088 821 
66.969 60.1088 821 
68.4018 60.1088 821 
69.8347 60.1088 821 
71.2675 60.1088 821 
72.7003 60.1088 821 
74.1332 60.1088 821 
75.566 60.1088 821 
76.9988 60.1088 821 
78.6227 60.2552 823 
80.0591 60.2552 823 
81.4954 60.2552 823 
82.9317 60.2552 823 
84.368 60.2552 823 
86.0129 60.4016 825 
87.4527 60.4016 825 
88.8925 60.4016 825 
90.3323 60.4016 825 
91.9946 60.5481 827 
93.4379 60.5481 827 
94.8812 60.5481 827 
96.3245 60.5481 827 
97.7678 60.5481 827 
99.2111 60.5481 827 
100.898 60.6945 829 
102.345 60.6945 829 
104.042 60.8409 831 
106 61.1338 835 
107.457 61.1338 835 
18.475 62.2912 831 
19.8774 62.1413 829 
21.2727 61.9914 827 
22.716 61.9914 827 
24.1009 61.8414 825 
25.4788 61.6915 823 
26.9151 61.6915 823 
28.2825 61.5416 821 
29.7154 61.5416 821 
31.1482 61.5416 821 
32.5017 61.3917 819 
33.931 61.3917 819 
35.3604 61.3917 819 
36.7897 61.3917 819 
38.219 61.3917 819 
39.6484 61.3917 819 
41.0777 61.3917 819 
42.5071 61.3917 819 
43.9364 61.3917 819 
45.3657 61.3917 819 
46.7951 61.3917 819 
48.1067 61.2418 817 
49.5325 61.2418 817 
50.9584 61.2418 817 
52.3842 61.2418 817 
53.8101 61.2418 817 
55.3711 61.3917 819 
56.8005 61.3917 819 
58.2298 61.3917 819 
59.8049 61.5416 821 
61.2377 61.5416 821 
62.6705 61.5416 821 
64.1033 61.5416 821 
65.5362 61.5416 821 
66.969 61.5416 821 
68.4018 61.5416 821 
69.8347 61.5416 821 
71.2675 61.5416 821 
72.7003 61.5416 821 
74.1332 61.5416 821 
75.566 61.5416 821 
76.9988 61.5416 821 
78.6227 61.6915 823 
80.0591 61.6915 823 
81.4954 61.6915 823 
82.9317 61.6915 823 
84.368 61.6915 823 
86.0129 61.8414 825 
87.4527 61.8414 825 
88.8925 61.8414 825 
90.3323 61.8414 825 
91.9946 61.9914 827 
93.4379 61.9914 827 
94.8812 61.9914 827 
96.3245 61.9914 827 
98.0043 62.1413 829 
99.451 62.1413 829 
100.898 62.1413 829 
102.592 62.2912 831 
104.292 62.4411 833 
106 62.591 835 
107.715 62.741 837 
19.8774 63.5881 829 
21.3242 63.5881 829 
22.716 63.4347 827 
24.1009 63.2813 825 
25.5407 63.2813 825 
26.9805 63.2813 825 
28.3514 63.1278 823 
29.7878 63.1278 823 
31.1482 62.9744 821 
32.581 62.9744 821 
33.931 62.821 819 
35.3604 62.821 819 
36.7897 62.821 819 
38.219 62.821 819 
39.6484 62.821 819 
41.0777 62.821 819 
42.5071 62.821 819 
43.9364 62.821 819 
45.3657 62.821 819 
46.7951 62.821 819 
48.1067 62.6676 817 
49.5325 62.6676 817 
50.9584 62.6676 817 
52.3842 62.6676 817 
53.8101 62.6676 817 
55.3711 62.821 819 
56.8005 62.821 819 
58.2298 62.821 819 
59.8049 62.9744 821 
61.2377 62.9744 821 
62.6705 62.9744 821 
64.1033 62.9744 821 
65.5362 62.9744 821 
66.969 62.9744 821 
68.4018 62.9744 821 
69.8347 62.9744 821 
71.2675 62.9744 821 
72.7003 62.9744 821 
74.1332 62.9744 821 
75.566 62.9744 821 
76.9988 62.9744 821 
78.6227 63.1278 823 
80.0591 63.1278 823 
81.4954 63.1278 823 
82.9317 63.1278 823 
84.368 63.1278 823 
86.0129 63.2813 825 
87.4527 63.2813 825 
88.8925 63.2813 825 
90.5513 63.4347 827 
91.9946 63.4347 827 
93.4379 63.4347 827 
95.1107 63.5881 829 
96.5575 63.5881 829 
98.0043 63.5881 829 
99.451 63.5881 829 
101.141 63.7415 831 
102.592 63.7415 831 
104.292 63.8949 833 
106.254 64.2017 837 
21.3242 65.0349 829 
22.771 65.0349 829 
24.1593 64.878 827 
25.6026 64.878 827 
26.9805 64.7211 825 
28.3514 64.5642 823 
29.7878 64.5642 823 
31.1482 64.4073 821 
32.581 64.4073 821 
34.0139 64.4073 821 
35.4467 64.4073 821 
36.7897 64.2504 819 
38.219 64.2504 819 
39.6484 64.2504 819 
41.0777 64.2504 819 
42.5071 64.2504 819 
43.9364 64.2504 819 
45.3657 64.2504 819 
46.7951 64.2504 819 
48.1067 64.0935 817 
49.5325 64.0935 817 
50.9584 64.0935 817 
52.3842 64.0935 817 
53.8101 64.0935 817 
55.3711 64.2504 819 
56.8005 64.2504 819 
58.2298 64.2504 819 
59.6592 64.2504 819 
61.2377 64.4073 821 
62.6705 64.4073 821 
64.1033 64.4073 821 
65.5362 64.4073 821 
66.969 64.4073 821 
68.4018 64.4073 821 
69.8347 64.4073 821 
71.2675 64.4073 821 
72.7003 64.4073 821 
74.1332 64.4073 821 
75.566 64.4073 821 
77.1864 64.5642 823 
78.6227 64.5642 823 
80.0591 64.5642 823 
81.4954 64.5642 823 
82.9317 64.5642 823 
84.368 64.5642 823 
86.0129 64.7211 825 
87.4527 64.7211 825 
88.8925 64.7211 825 
90.5513 64.878 827 
91.9946 64.878 827 
93.4379 64.878 827 
95.1107 65.0349 829 
96.5575 65.0349 829 
98.0043 65.0349 829 
99.451 65.0349 829 
101.141 65.1918 831 
102.592 65.1918 831 
104.292 65.3487 833 
106.254 65.6625 837 
22.771 66.4817 829 
24.2177 66.4817 829 
25.6026 66.3213 827 
26.9805 66.1609 825 
28.3514 66.0005 823 
29.7878 66.0005 823 
31.2241 66.0005 823 
32.581 65.8401 821 
34.0139 65.8401 821 
35.4467 65.8401 821 
36.8795 65.8401 821 
38.3124 65.8401 821 
39.7452 65.8401 821 
41.0777 65.6797 819 
42.5071 65.6797 819 
43.9364 65.6797 819 
45.3657 65.6797 819 
46.7951 65.6797 819 
48.1067 65.5193 817 
49.5325 65.5193 817 
50.9584 65.5193 817 
52.3842 65.5193 817 
53.8101 65.5193 817 
55.3711 65.6797 819 
56.8005 65.6797 819 
58.2298 65.6797 819 
59.6592 65.6797 819 
61.2377 65.8401 821 
62.6705 65.8401 821 
64.1033 65.8401 821 
65.5362 65.8401 821 
66.969 65.8401 821 
68.4018 65.8401 821 
69.8347 65.8401 821 
71.2675 65.8401 821 
72.7003 65.8401 821 
74.1332 65.8401 821 
75.7501 66.0005 823 
77.1864 66.0005 823 
78.6227 66.0005 823 
80.0591 66.0005 823 
81.4954 66.0005 823 
82.9317 66.0005 823 
84.368 66.0005 823 
86.0129 66.1609 825 
