ply
format ascii 1.0
comment Created by Open3D
element vertex 1873
property double x
property double y
property double z
end_header
-162.055 61.0944 -786.856
-161.581 62.5069 -786.047
-161.27 60.5069 -785.796
-161.27 61.0069 -785.734
-161.27 61.5069 -785.593
-161.27 62.0069 -785.646
-161.27 62.5069 -785.605
-161.984 76.0503 -784.362
-161.388 75.5069 -784.547
-161.27 75.5069 -784.809
-161.597 75.5069 -784.047
-161.551 68.0069 -782.547
-161.77 68.0069 -782.88
-161.77 67.8536 -783.047
-161.77 68.3863 -782.547
-161.542 68.5069 -782.047
-161.751 69.0069 -782.047
-161.77 69.0365 -782.047
-161.485 70.0825 -780.69
-161.77 69.5069 -781.743
-161.52 69.0069 -781.547
-161.77 69.7962 -781.547
-161.27 68.5069 -781.419
-160.681 69.0492 -779.259
-161.738 72.0069 -777.547
-161.636 72.5069 -777.047
-161.32 73.0069 -776.547
-161.314 73.0069 -777.047
-161.513 72.2472 -776.118
-161.27 73.0069 -776.178
-162.071 67.7322 -770.658
-159.583 76.4582 -770.39
-163.222 88.5102 -760.408
-162.12 169.481 -739.258
-161.474 126.34 -738.813
-161.815 149.469 -726.969
-164.77 154.264 -727.166
-160.166 113.434 -798.933
-160.619 38.1324 -790.85
-159.401 76.6902 -787.893
-160.876 76.685 -786.026
-160.77 58.3455 -786.047
-161.209 59.0069 -786.047
-164.757 125.068 -782.309
-160.81 56.1205 -785.42
-160.77 58.5697 -786.047
-160.84 60.5069 -785.547
-160.784 75.5069 -785.547
-160.77 75.5069 -785.576
-160.782 47.9008 -785.308
-160.77 59.8807 -785.047
-160.77 60.0069 -785.08
-160.77 60.5069 -785.511
-161.174 75.5069 -785.047
-160.855 58.8205 -785.304
-160.77 59.5069 -784.939
-160.931 54.6582 -780.358
-160.879 51.2552 -783.029
-161.27 68.0069 -781.894
-160.826 67.5069 -781.547
-161.27 68.3844 -781.547
-160.77 67.4409 -781.547
-160.26 67.0104 -774.803
-161.256 71.0927 -777.256
-161.253 73.0069 -776.047
-160.888 73.5069 -775.547
-160.77 73.7545 -775.547
-161.286 72.9587 -772.524
-158.108 80.1787 -767.185
-160.117 150.915 -761.318
-159.36 88.9593 -755.208
-162.3 129.657 -738.345
-160.18 140.048 -732.61
-159.773 118.553 -793.936
-160.569 79.4476 -794
-160.524 75.5069 -786.047
-161.518 41.0892 -783.979
-160.665 58.5069 -786.047
-160.27 75.3025 -785.547
-161.316 129.452 -784.739
-160.579 59.0069 -784.547
-160.511 59.5069 -784.047
-160.596 60.0069 -784.047
-160.599 60.5069 -784.047
-160.496 60.507 -783.547
-160.27 61.0069 -783.548
-160.449 61.0069 -784.047
-160.311 59.1587 -782.608
-160.322 62.5069 -783.547
-160.27 62.2104 -783.547
-160.27 62.1768 -783.047
-160.27 62.6446 -783.047
-160.258 62.7444 -780.727
-160.27 62.7507 -782.547
-160.282 67.0069 -781.047
-160.27 66.9913 -781.047
-160.27 66.9992 -780.547
-160.503 58.1895 -778.997
-160.467 67.4126 -780.695
-160.672 74.0069 -775.547
-160.712 74.0867 -773.994
-160.27 74.3282 -775.547
-163.758 135.595 -770.872
-160.078 83.9317 -763.042
-158.516 158.711 -756.836
-160.132 75.068 -788.185
-159.763 41.8769 -788.155
-160.27 75.2466 -785.047
-159.77 75.2139 -784.547
-160.27 61.0069 -783.547
-160.116 61.5069 -783.047
-160.232 62.0069 -783.047
-160.123 63.0069 -782.547
-159.891 63.5069 -782.047
-160.285 60.2319 -780.877
-159.919 64.0069 -782.047
-160.17 64.5069 -782.047
-160.255 65.0069 -781.547
-160.034 65.5069 -781.047
-159.808 66.0069 -781.047
-159.77 66.5069 -780.842
-159.77 66.1521 -781.047
-159.97 65.7463 -779.961
-160.123 62.6884 -778.655
-159.708 64.9809 -777.136
-159.908 74.5069 -776.547
-159.887 74.5069 -776.047
-159.77 74.5627 -776.547
-161.033 142.831 -768.327
-160.918 86.2935 -760.352
-158.17 167.194 -750.378
-160.736 136.865 -735.654
-160.27 132.007 -730.914
-160.27 132.12 -731.047
-160.157 132.007 -731.047
-163.179 157.909 -726.325
-159.177 100.878 -805.769
-161.239 104.637 -803.301
-158.728 91.251 -804.127
-159.27 75.2573 -784.047
-163.142 134.232 -777.004
-159.27 74.7196 -777.047
-161.253 107.767 -740.743
-159.746 126.453 -736.7
-160.955 123.416 -739.589
-159.226 163.489 -727.173
-156.441 108.347 -804.659
-159.679 77.6726 -799.142
-158.733 71.8917 -797.696
-158.77 75.104 -783.547
-158.77 74.8037 -777.547
-159.291 74.8232 -775.723
-163.135 139.331 -769.108
-155.578 83.7327 -757.221
-159.367 160.322 -753.507
-159.27 138.011 -728.047
-159.261 138.007 -728.047
-159.27 138.007 -728.042
-158.746 77.1701 -802.859
-158.77 75.0713 -783.047
-158.629 75.0069 -782.547
-158.27 74.9048 -782.547
-158.27 74.8398 -778.547
-158.77 74.8054 -778.047
-156.094 75.2442 -776.046
-156.928 141.38 -776.941
-158.122 141.169 -731.004
-157.43 86.8318 -805.302
-158.357 71.9293 -802.51
-158.172 73.5752 -791.892
-159.212 74.7193 -794.028
-157.859 73.0157 -789.407
-158.149 127.153 -788.234
-157.825 74.1998 -785.353
-158.27 74.8702 -782.047
-158.27 74.8505 -781.547
-156.235 74.3678 -779.948
-158.27 74.833 -781.047
-158.27 74.8169 -780.547
-157.77 74.7858 -780.047
-157.77 74.7894 -779.547
-158.27 74.8245 -779.047
-162.482 144.63 -764.913
-158.066 163.656 -753.917
-156.431 107.134 -737.535
-158.249 113.829 -739.216
-159.423 171.049 -735.821
-156.723 137.014 -730.322
-157.494 73.3387 -806.51
-158.08 82.6944 -802.732
-157.168 113.223 -801.408
-158.001 118.779 -796.158
-158.762 125.661 -790.113
-159.258 92.2124 -751.386
-158.093 171.716 -746.086
-159.049 99.8202 -744.076
-157.663 70.8698 -807.609
-156.384 76.6504 -806.805
-155.713 91.9591 -808.008
-157.289 69.5366 -798.163
-156.769 76.8418 -772.012
-156.328 69.6397 -809.804
-157.063 80.109 -807.484
-157.175 80.2506 -804.873
-156.642 67.0696 -801.248
-155.918 68.4211 -793.17
-159.309 133.388 -783.573
-153.163 99.0881 -740.058
-155.64 142.085 -727.311
-156.086 77.3614 -810.188
-155.958 100.787 -806.886
-154.94 117.718 -798.665
-154.297 91.8555 -747.32
-155.364 174.698 -741.309
-155.363 167.273 -728.33
-155.163 153.565 -723
-155.365 62.9505 -808.993
-154.685 82.0852 -812.401
-156.809 84.6043 -807.695
-153.78 118.496 -799.772
-156.197 147.648 -724.432
-154.646 71.8097 -814.515
-155.372 73.1036 -810.47
-152.174 143.486 -780.147
-157.223 103.892 -739.871
-151.305 138.098 -725.303
-154.796 70.5747 -811.864
-149.926 110.113 -806.852
-156.342 65.4518 -804.744
-154.687 64.6338 -796.781
-157.583 131.388 -786.972
-153.183 111.255 -736.945
-153.848 59.3034 -813.443
-154.285 85.9591 -811.558
-152.983 96.3692 -810.481
-154.403 59.1295 -810.987
-154.307 111.15 -804.146
-153.229 60.0543 -801.535
-156.466 121.501 -794.657
-156.12 129.088 -790.755
-153.855 133.642 -789.335
-152.976 136.207 -788.152
-158.732 137.535 -781.364
-151.231 71.2085 -777.722
-152.832 75.162 -768.697
-155.808 159.412 -759.77
-153.207 65.0989 -816.014
-154.845 64.9958 -813.886
-152.787 125.807 -795.166
-154.667 137.105 -785.013
-151.875 153.223 -769.837
-154.396 157.504 -762.847
-152.346 102.193 -737.753
-153.675 175.079 -737.141
-153.471 179.631 -735.275
-153.709 171.688 -731.056
-152.059 168.799 -726.92
-153.254 60.2037 -818.253
-155.984 152.563 -765.884
-154.828 88.2313 -751.404
-153.068 183.628 -732.593
-151.965 129.733 -729.161
-156.878 133.919 -731.86
-152.692 192.437 -726.63
-153.073 198.423 -724.853
-152.479 62.1365 -820.879
-151.53 65.9096 -822.585
-153.224 65.4401 -818.049
-153.242 77.9859 -816.011
-152.263 171.863 -752.329
-152.236 186.523 -734.783
-153.243 176.27 -729.47
-152.433 186.505 -727.086
-153.648 208.729 -724.838
-151.656 196.231 -721.342
-153.686 210.677 -717.685
-152.152 213.77 -694.257
-152.53 216.567 -691.414
-151.323 58.2289 -823.109
-152.623 70.253 -819.181
-152.479 55.6592 -819.886
-153.192 56.0326 -814.854
-152.907 90.7728 -812.082
-150.367 117.355 -802.47
-155.076 146.852 -773.744
-152.668 164.842 -757.959
-150.221 96.3269 -741.251
-151.629 180.676 -739.337
-151.999 194.395 -730.597
-151.502 214.979 -707.415
-151.757 53.9795 -821.862
-150.191 49.8927 -814.807
-149.886 93.5374 -813.702
-151.382 56.1135 -804.293
-151.372 121.474 -799.389
-152.208 174.843 -748.848
-150.802 178.458 -742.299
-150.617 183.911 -738.802
-154.596 119.285 -735.037
-151.834 205.542 -727.551
-151.567 147.972 -720.732
-152.188 207.592 -715.431
-151.497 213.907 -699.287
-152.559 216.239 -696.145
-151.799 211.607 -694.264
-150.615 48.734 -821.183
-150.411 73.968 -821.566
-153.582 68.6548 -787.509
-152.802 150.235 -772.765
-152.847 78.6188 -762.184
-148.116 116.372 -733.076
-149.619 122.506 -730.357
-151.739 199.954 -729.604
-152.952 143.403 -724.011
-150.63 224.361 -718.761
-150.603 226.089 -716.147
-152.8 203.945 -719.906
-150.987 222.443 -715.637
-151.388 213.593 -703.464
-150.226 211.769 -689.927
-150.965 51.2076 -825.623
-151.296 53.2767 -811.822
-152.716 101.051 -808.931
-150.956 60.1401 -797.543
-149.344 140.012 -787.452
-150.986 141.755 -785.614
-149.271 83.6996 -752.19
-147.707 201.409 -735.064
-151.892 216.046 -723.863
-148.854 164.14 -723.039
-150.329 222.147 -725.025
-150.92 218.533 -716.116
-150.287 47.6041 -829.45
-149.911 52.1524 -827.734
-149.173 43.809 -826.223
-150.286 46.3522 -824.525
-148.539 90.9186 -815.148
-147.378 103.173 -811.79
-151.482 64.8629 -791.994
-149.04 77.7846 -759.651
-147.739 80.4184 -755.631
-148.289 185.337 -722.157
-151.047 156.963 -722.175
-151.058 211.507 -699.517
-149.754 214.276 -688.581
-150.153 219.14 -688.917
-148.479 46.9457 -833.873
-150.12 55.5543 -829.309
-150.687 53.5306 -808.03
-146.877 158.559 -769.489
-151.295 191.272 -734.474
-151.37 180.216 -725.828
-152.495 162.735 -725.345
-150.905 191.682 -722.913
-149.886 199.224 -717.899
-150.266 217.977 -702.839
-148.823 49.7674 -834.176
-149.34 52.4706 -832.17
-149.394 43.5709 -831.701
-148.587 149.111 -777.961
-149.544 216.184 -731.261
-147.58 167.219 -720.617
-148.102 153.795 -718.728
-149.599 209.623 -707.496
-148.493 222.365 -709.783
-149.301 220.079 -697.852
-149.357 209.342 -692.83
-149.654 60.7037 -827.738
-146.914 126.035 -799.368
-148.634 132.256 -794.259
-149.287 160.978 -763.94
-148.354 92.1802 -744.03
-148.279 108.329 -735.794
-148.246 214.416 -734.13
-147.749 224.11 -731.677
-148.686 220.764 -731.131
-150.057 224.426 -726.867
-147.922 208.416 -703.443
-148.542 42.5537 -835.867
-147.357 38.2687 -832.632
-147.635 79.2461 -822.017
-146.249 48.2648 -809.516
-147.663 144.959 -783.862
-149.211 164.104 -760.778
-148.88 205.47 -732.094
-146.396 210.233 -735.695
-148.196 134.016 -725.338
-146.894 179.713 -721.657
-149.186 173.262 -723.139
-143.207 143.9 -719.728
-147.164 190.652 -720.662
-148.543 222.533 -694.462
-148.143 38.1316 -838.738
-148.087 47.0687 -837.165
-146.501 55.2982 -835.855
-148.17 44.4786 -820.286
-150.758 86.3568 -815.655
-148.542 105.462 -809.524
-150.702 136.111 -790.146
-146.183 67.1216 -780.664
-144.842 153.449 -779.144
-151.846 167.952 -755.849
-147.119 87.1596 -748.094
-144.712 181.305 -746.068
-146.176 227.943 -727.449
-146.608 139.337 -722.277
-146.36 204.562 -713.155
-146.691 225.406 -702.807
-148.622 224.983 -705.388
-146.724 44.9826 -842.095
-147.312 42.7031 -839.608
-146.004 51.4971 -839.307
-148.18 57.2152 -832.321
-146.994 54.7832 -801.161
-147.032 128.31 -727.121
-147.161 157.711 -720.961
-149.092 227.975 -714.9
-145.466 207.638 -697.319
-145.676 221.587 -690.198
-146.906 217.811 -686.227
-146.247 41.3101 -844.862
-147.145 69.5738 -826.868
-147.79 81.6659 -820.065
-144.413 61.4996 -790.498
-147.388 134.358 -794.83
-148.464 153.071 -773.854
-146.617 71.0781 -771.639
-148.687 182.718 -742.09
-146.522 187.807 -741.531
-145.86 174.676 -718.042
-146.283 40.2547 -825.569
-150.28 83.6979 -817.118
-145.27 138.539 -794.163
-146.753 142.232 -789.197
-145.336 148.413 -784.069
-147.537 177.745 -748.405
-145.869 197.153 -738.518
-145.794 163.112 -719.706
-145.58 197.011 -716.686
-146.582 39.0157 -843.137
-146.669 34.0371 -843.054
-145.29 36.3776 -830.214
-143.229 98.2546 -815.913
-148.767 74.6562 -765.636
-141.265 82.7199 -751.919
-146.597 191.123 -740.282
-150.08 226.719 -721.532
-143.37 164.775 -719.377
-145.052 31.4915 -850.908
-143.45 61.7301 -835.343
-142.574 72.8063 -829.951
-145.131 75.6903 -825.535
-140.156 88.4183 -822.099
-143.888 46.7718 -809.612
-146.342 51.705 -804.935
-141.904 142.157 -793.244
-144.254 94.5941 -741.732
-142.423 209.879 -738.506
-145.538 220.992 -734.312
-145.35 187.678 -719.723
-144.707 205.025 -707.601
-144.193 34.2451 -854.534
-145.829 32.3947 -846.833
-145.605 34.0451 -836.811
-145.439 90.0158 -817.959
-144.412 161.334 -768.125
-141.767 73.0573 -764.664
-143.088 76.2256 -759.705
-141.899 178.445 -749.011
-145.994 204.82 -735.874
-144.494 184.954 -718.715
-144.555 199.888 -711.142
-145.194 224.947 -696.793
-142.576 208.528 -691.97
-147.24 212.224 -687.117
-143.795 102.524 -813.713
-140.826 65.4443 -780.936
-143.658 184.299 -744.669
-144.493 149.334 -718.349
-144.234 195.063 -715.314
-143.287 199.046 -710.955
-143.187 32.2178 -859.42
-142.756 24.744 -859.795
-143.925 28.0161 -850.808
-142.994 29.0944 -843.621
-146.064 64.0962 -830.963
-146.015 172.556 -755.122
-143.615 229.769 -711.458
-142.003 226.717 -701.606
-146.843 215.542 -687.071
-144.662 38.7608 -850.626
-143.56 45.0595 -846.837
-142.342 50.7315 -844.196
-142.38 58.5319 -839.419
-141.82 32.596 -832.506
-142.61 37.9458 -824.591
-143.349 115.377 -807.759
-141.594 158.473 -774.102
-144.41 166.584 -761.67
-143.782 108.295 -735.294
-142.353 172.58 -718.715
-143.304 176.402 -717.149
-143.489 206.475 -705.066
-142.069 222.98 -692.502
-140.238 22.6424 -855.775
-144.435 28.7616 -854.646
-142.432 31.0256 -837.053
-141.976 93.7479 -818.563
-143.58 133.86 -797.784
-143.367 145.342 -788.612
-141.944 149.382 -785.49
-140.758 69.1012 -772.774
-141.518 205.273 -708.383
-142.423 211.593 -687
-141.559 28.7448 -866.31
-142.227 27.7132 -862.483
-144.431 43.1866 -816.178
-143.158 87.0282 -747.159
-146.294 97.7368 -738.961
-143.3 215.308 -736.987
-138.17 223.44 -735.642
-142.193 136.089 -723.129
-141.589 232.786 -721.199
-138.284 154.152 -720.328
-144.691 155.17 -718.385
-140.42 183.327 -721.168
-142.193 180.647 -718.406
-142.976 191.413 -717.247
-141.996 219.829 -687.904
-141.555 22.5953 -863.823
-142.234 36.9686 -857.178
-140.466 119.772 -806.479
-140.06 154.289 -780.059
-144.876 90.6602 -744.742
-139.539 188.882 -743.433
-139.251 218.839 -736.956
-143.954 139.047 -721.787
-141.888 156.682 -719.795
-141.696 199.267 -711.611
-140.952 21.4542 -868.704
-140.191 23.9254 -850.545
-137.803 47.9467 -850.904
-137.383 26.2932 -842.696
-141.203 67.6157 -833.647
-144.39 122.482 -803.796
-139.562 136.61 -797.179
-143.948 101.888 -736.545
-142.196 230.582 -728.012
-138.854 235.703 -733.104
-141.995 122.977 -728.509
-141.086 176.013 -720.885
-139.511 149.42 -719.259
-141.92 195.306 -715.018
-139.842 33.0767 -866.499
-140.272 43.1316 -852.722
-138.679 65.0744 -837.706
-138.245 161.104 -768.653
-143.104 79.0245 -755.668
-141.39 192.89 -741.888
-137.467 128.668 -726.95
-142.238 130.058 -725.63
-142.469 160.605 -719.608
-139.673 229.802 -709.668
-141.167 35.686 -860.619
-137.753 36.3459 -824.833
-139.519 125.337 -803.169
-141.258 129.644 -801.072
-139.795 144.967 -790.67
-140.646 165.002 -764.756
-140.689 170.065 -758.163
-141.611 203.508 -738.838
-140.813 227.069 -733.332
-139.302 202.814 -714.753
-139.364 221.338 -692.98
-140.669 213.606 -687.865
-140.117 24.3079 -872.829
-136.603 17.1237 -867.093
-138.358 19.3903 -861.931
-138.1 157.853 -773.682
-140.574 173.526 -754.675
-136.943 90.0926 -746.732
-137.056 123.055 -729.574
-139.996 208.267 -701.647
-139.014 21.0155 -878.369
-139.613 20.1033 -872.946
-139.811 60.7858 -789.721
-138.551 85.6804 -749.588
-138.723 180.159 -746.051
-141.059 111.589 -734.18
-136.512 175.599 -724.993
-139.016 196.757 -718.195
-137.477 225.38 -704.281
-139.575 223.891 -698.011
-141.749 216.65 -686.133
-138.587 23.0928 -879.203
-139.267 25.2165 -877.853
-138.153 18.0733 -873.682
-137.208 17.5931 -870.292
-137.969 30.2299 -834.563
-136.272 45.6209 -812.112
-142.396 53.0011 -801.3
-139.636 139.731 -794.321
-135.639 81.179 -754.915
-137.23 212.203 -737.416
-138.992 179.133 -722.095
-137.624 232.612 -719.065
-138.765 218.854 -698.992
-138.475 221.184 -697.325
-140.44 55.9787 -842.802
-139.671 79.0548 -828.095
-138.755 91.842 -820.101
-139.58 42.0606 -815.896
-136.024 104.182 -813.351
-141.344 108.873 -811.642
-137.691 147.654 -786.426
-134.882 71.4733 -768.515
-140.052 206.524 -739.16
-139.156 230.835 -736.23
-136.078 235.257 -727.178
-136.654 140.283 -722.742
-136.3 222.322 -702.915
-138.434 210.171 -692.759
-138.024 217.997 -689.601
-137.005 213.942 -689.815
-137.836 26.6126 -882.763
-137.727 18.4407 -877.173
-136.576 44.2042 -856.039
-138.149 61.0213 -841.208
-135.147 62.7004 -840.224
-138.559 72.387 -832.798
-135.573 80.7797 -827.106
-139.975 84.2047 -824.577
-135.741 203.75 -739.257
-133.304 104.046 -737.63
-137.755 236.382 -736.11
-137.216 134.233 -724.795
-140.267 171.556 -721.536
-139.364 160.502 -720.287
-140.091 188.306 -720.17
-136.467 228.745 -709.705
-137.599 212.539 -697.182
-137.464 22.0311 -886.702
-136.804 17.0069 -873.547
-136.77 17.0069 -873.683
-136.808 17.0069 -873.047
-136.77 17.0069 -872.909
-135.161 58.6983 -843.527
-136.526 86.7083 -823.751
-135.743 54.7145 -799.708
-133.818 133.508 -795.544
-136.607 77.4831 -758.725
-138.003 234.459 -737.084
-135.779 237.166 -744.849
-137.113 237.007 -735.547
-136.77 237.248 -735.547
-137.108 237.007 -735.047
-137.106 237.007 -734.547
-136.77 237.056 -734.047
-136.77 236.728 -732.047
-139.398 235.346 -728.503
-136.999 211.035 -699.608
-136.947 24.9853 -889.234
-136.506 13.5069 -890.547
-136.472 13.5069 -890.047
-136.27 13.7526 -890.547
-136.602 19.2565 -890.03
-136.33 13.5069 -889.547
-136.437 13.5069 -889.047
-136.604 13.5069 -888.547
-136.705 13.5069 -888.047
-136.77 13.4024 -888.047
-136.721 13.5069 -887.547
-136.199 13.9627 -887.547
-136.278 14.0069 -887.047
-136.27 14.0107 -887.047
-138.52 29.5282 -875.313
-136.745 17.1438 -874.538
-136.27 16.5959 -873.547
-136.27 16.5691 -873.047
-136.313 53.5601 -847.301
-135.798 69.1084 -835.359
-135.724 138.01 -794.234
-135.863 149.881 -780.991
-136.79 175.659 -748.4
-138.466 197.798 -741.199
-136.529 237.507 -737.547
-136.27 237.718 -737.547
-136.497 237.507 -737.047
-136.524 237.507 -736.547
-136.58 237.507 -736.047
-136.27 237.648 -736.047
-136.27 237.649 -736.547
-132.563 109.377 -736.617
-136.597 237.507 -735.547
-136.27 237.292 -734.547
-134.596 237.189 -733.112
-136.27 236.926 -732.547
-136.27 236.67 -731.547
-133.564 159.281 -722.631
-134.481 232.15 -720.171
-136.113 214.482 -698.742
-136.245 212.929 -693.6
-136.248 215.463 -692.794
-135.941 47.6146 -944.052
-136.145 23.8868 -893.81
-135.831 14.0069 -890.547
-135.811 14.0335 -888.2
-135.77 14.0336 -890.547
-136.27 14.064 -886.547
-135.77 14.3385 -886.547
-137.949 19.651 -882.341
-136.004 16.5069 -878.547
-135.77 16.2598 -878.547
-135.972 16.5069 -878.047
-135.853 16.5069 -877.547
-135.867 16.5069 -877.047
-135.956 16.5069 -876.547
-136.135 16.5069 -876.047
-136.207 16.5069 -875.547
-136.13 16.5069 -875.047
-136.243 16.5069 -874.547
-135.803 16.2271 -872.751
-135.77 16.1388 -874.547
-135.542 23.3895 -848.815
-138.451 98.4334 -817.056
-134.155 142.759 -788.71
-133.721 64.8583 -784.594
-137.086 164.424 -762.141
-136.515 93.0636 -743.767
-136.792 221.743 -739.555
-135.77 237.92 -738.547
-135.77 238.007 -738.342
-135.91 238.007 -738.047
-136.27 237.507 -734.892
-135.77 237.507 -734.693
-135.77 236.802 -732.047
-135.479 47.672 -945.281
-134.945 54.9909 -944.623
-135.27 14.3364 -890.547
-134.727 28.7731 -888.741
-135.461 14.5069 -886.547
-135.27 14.7154 -886.047
-135.692 14.5069 -886.047
-135.541 16.6585 -884.689
-135.284 16.0069 -884.047
-135.27 16.0069 -884.106
-135.435 16.5069 -883.547
-135.351 16.5069 -883.047
-135.583 16.5069 -882.547
-135.739 16.5069 -882.047
-135.72 16.5069 -881.547
-135.598 16.5069 -881.047
-135.491 16.5069 -880.547
-135.27 16.282 -880.047
-135.383 16.0069 -879.047
-135.27 16.0069 -879.172
-135.515 16.0069 -878.547
-135.472 16.0069 -874.547
-135.27 15.9243 -874.547
-133.413 37.762 -866.812
-136.186 38.413 -863.715
-133.181 45.0001 -856.641
-132.662 89.3361 -819.386
-136.253 227.595 -739.371
-136.76 96.1469 -741.161
-135.639 238.007 -739.047
-135.27 238.108 -739.047
-135.372 237.507 -734.547
-135.27 237.507 -734.525
-139.312 118.097 -731.573
-135.978 208.691 -707.253
-135.121 53.9342 -947.6
-135.56 54.9464 -946.268
-134.707 43.5627 -943.575
-133.871 52.9514 -943.321
-135.527 46.1412 -940.26
-135.368 39.6769 -938.752
-135.106 36.3871 -933.268
-134.78 26.2231 -912.952
-135.276 24.696 -901.747
-134.744 26.9832 -895.293
-133.317 15.5123 -891.426
-135.27 14.2514 -891.047
-134.982 14.5069 -891.547
-134.77 14.69 -891.547
-134.412 15.6739 -886.101
-134.77 14.9919 -886.047
-134.87 15.0069 -885.547
-134.77 15.0069 -885.927
-134.77 15.0641 -885.547
-135.162 16.0069 -884.547
-134.77 16.0069 -885.042
-134.77 16.0468 -880.547
-135.915 16.5131 -879.155
-134.982 16.0069 -879.547
-134.77 16.0069 -879.889
-134.77 15.6569 -875.047
-134.392 171.37 -752.48
-136.187 233.166 -746.134
-132.142 93.4965 -745.257
-139.357 184.855 -744.85
-134.77 238.237 -739.547
-135.623 218.184 -737.112
-136.085 106.184 -736.646
-134.909 237.507 -734.547
-134.77 237.652 -735.047
-133.322 194.644 -723.268
-133.336 206.274 -713.279
-136.141 212.726 -704.273
-134.27 56.1945 -947.547
-134.27 56.5069 -947.237
-134.672 56.5069 -947.047
-134.693 56.5069 -946.547
-134.475 56.5069 -946.047
-134.349 56.5069 -945.547
-134.751 55.5069 -945.047
-134.327 56.0069 -945.047
-134.27 55.5069 -944.6
-134.27 55.0658 -944.047
-134.27 55.5069 -944.533
-134.609 55.5069 -944.047
-134.577 55.0069 -943.547
-134.27 54.5627 -943.547
-134.573 54.5069 -943.047
-134.27 54.0865 -943.047
-134.532 54.0069 -942.547
-134.27 53.6346 -942.547
-134.747 42.1341 -937.542
-134.37 28.1373 -928.679
-134.595 24.6362 -918.702
-134.885 24.2612 -907.306
-134.562 21.9891 -912.658
-134.758 20.8499 -904.844
-135.472 20.0613 -898.145
-134.27 14.8721 -891.547
-134.248 15.3297 -889.312
-134.314 15.5069 -885.547
-134.352 15.5069 -885.047
-134.712 16.0069 -880.547
-134.77 16.0069 -880.584
-134.681 16.0069 -880.047
-134.683 15.5069 -876.547
-134.27 15.3736 -876.547
-134.77 15.5344 -876.547
-134.77 15.5655 -876.047
-134.77 15.604 -875.547
-134.826 34.567 -872.94
-133.264 15.5319 -871.836
-134.834 19.965 -856.964
-132.404 21.2966 -853.422
-131.503 73.5825 -828.956
-136 74.5287 -831.487
-132.207 77.3845 -827.004
-135.698 116.04 -807.702
-136.149 122.908 -803.775
-137.59 130.384 -799.814
-134.623 58.9901 -793.711
-134.284 67.876 -776.983
-135.378 157.23 -770.438
-134.679 237.541 -748.698
-135.558 238.184 -741.455
-134.27 238.621 -741.047
-134.27 238.545 -740.547
-134.27 238.507 -740.438
-133.817 224.198 -741.534
-134.27 238.507 -739.932
-134.559 238.507 -739.547
-134.904 197.61 -739.443
-134.77 238.007 -736.292
-134.27 238.007 -736.318
-134.77 237.913 -736.047
-134.77 237.776 -735.547
-133.828 114.092 -734.418
-135.512 178.103 -725.005
-133.428 137.451 -725.523
-134.897 162.954 -722.828
-133.77 55.5069 -948.1
-133.77 55.6477 -948.047
-133.77 56.0069 -947.907
-134.103 56.5069 -947.547
-134.239 55.5069 -944.547
-134.09 53.5069 -942.547
-133.955 53.0069 -942.047
-133.77 52.6634 -942.047
-133.888 52.5069 -941.547
-133.77 52.2907 -941.547
-133.77 51.7736 -941.047
-133.853 52.0069 -941.047
-133.88 51.5069 -940.547
-133.77 51.2194 -940.547
-133.77 51.5069 -940.818
-133.991 37.0234 -939.075
-133.836 49.5069 -939.047
-133.77 49.1404 -939.047
-133.77 49.5069 -939.135
-133.804 49.0069 -938.547
-133.77 48.8081 -938.547
-134.772 32.1837 -932.445
-134.334 30.6525 -923.844
-135.669 19.3064 -894.449
-135.214 17.7918 -892.025
-133.77 15.0069 -891.986
-133.77 15.1446 -891.547
-133.77 15.2031 -877.047
-133.476 48.4089 -852.475
-132.579 82.5342 -824.112
-137.18 109.819 -810.968
-132.245 128.109 -798.376
-133.77 239.007 -748.01
-133.792 239.007 -747.547
-133.77 239.017 -747.547
-133.844 239.007 -747.047
-133.904 239.007 -746.547
-134.037 239.007 -746.047
-134.153 239.007 -745.547
-133.86 239.007 -745.047
-133.935 239.007 -744.547
-134.808 225.821 -742.916
-133.902 239.007 -744.047
-134.033 239.007 -743.547
-134.051 239.007 -743.047
-133.85 239.007 -742.547
-133.92 239.007 -742.047
-133.904 239.007 -741.547
-134.155 238.507 -740.047
-133.77 238.007 -736.502
-133.76 220.976 -734.418
-133.056 127.039 -729.939
-131.761 151.822 -722.306
-133.27 55.0069 -948.291
-133.645 56.0069 -948.047
-133.641 56.0069 -945.047
-133.27 56.0069 -945.323
-133.536 55.5069 -944.547
-133.538 55.0069 -944.047
-133.456 54.5069 -943.547
-132.818 54.5547 -944.48
-133.27 54.3524 -943.547
-133.495 54.0069 -943.047
-133.27 54.0069 -943.232
-133.27 53.8108 -943.047
-134.431 50.9148 -941.696
-133.715 51.0069 -941.047
-133.667 51.5069 -941.047
-133.452 50.5069 -940.547
-133.378 50.0069 -940.047
-133.403 49.5069 -939.547
-133.64 48.0766 -938.863
-133.719 48.5069 -938.547
-133.538 48.0069 -938.047
-133.355 47.5069 -937.547
-133.27 47.3332 -937.547
-133.044 37.5921 -929.608
-134.237 25.8119 -924.119
-133.153 28.2832 -901.9
-133.341 16.5069 -896.047
-133.27 16.5069 -896.263
-133.431 16.5069 -895.547
-133.27 16.4117 -895.047
-133.309 16.0069 -893.047
-133.27 16.0069 -893.112
-133.606 16.0069 -892.547
-133.34 15.5069 -892.047
-133.309 15.5069 -891.547
-133.27 15.0366 -878.547
-133.77 15.1984 -878.047
-133.77 15.1973 -877.547
-133.078 25.5847 -844.31
-132.441 67.5821 -834.268
-135.005 42.0018 -817.852
-135.602 74.8617 -762.676
-135.225 235.605 -747.027
-133.769 239.007 -748.047
-133.27 239.277 -748.047
-133.77 238.507 -738.132
-133.27 238.507 -738.544
-133.77 238.477 -738.047
-133.77 238.331 -737.547
-131.382 237.21 -736.333
-133.77 238.179 -737.047
-133.27 238.072 -737.047
-133.697 238.007 -736.547
-134.611 237.336 -733.988
-136.161 220.258 -706.182
-134.194 221.091 -709.169
-132.77 52.6622 -948.547
-132.88 53.0069 -948.547
-132.897 53.5069 -948.547
-132.932 54.0069 -948.547
-132.975 54.5069 -948.547
-132.881 55.0069 -948.547
-132.962 56.0069 -945.547
-132.77 56.0069 -945.875
-132.77 54.0487 -943.547
-133.202 47.0069 -937.047
-132.908 46.5069 -936.547
-132.892 46.0069 -936.047
-132.77 45.7246 -936.047
-132.954 45.5069 -935.547
-132.77 45.2243 -935.547
-132.501 44.9684 -935.931
-132.789 45.0069 -935.047
-132.77 44.9718 -935.047
-132.906 29.8026 -933.051
-133.359 29.3889 -916.724
-133.105 19.4207 -910.633
-133.632 17.5942 -900.083
-132.958 16.5069 -898.047
-132.77 16.5069 -898.471
-133.054 16.5069 -897.547
-132.77 16.246 -897.547
-133.37 16.7778 -896.927
-132.77 16.0979 -896.047
-132.989 16.0069 -894.547
-132.837 16.0069 -895.047
-132.97 16.0069 -894.047
-132.985 16.0069 -893.547
-133.707 31.5046 -883.537
-132.77 14.7653 -882.047
-133.27 14.9164 -881.547
-133.27 14.9497 -881.047
-133.27 14.977 -880.547
-133.27 15.004 -880.047
-133.27 15.0069 -879.99
-133.27 15.0286 -879.547
-133.27 15.0384 -879.047
-131.669 14.6476 -878.298
-134.393 42.257 -860.814
-134.077 53.8624 -847.345
-131.733 62.2417 -837.32
-134.214 34.4566 -828.613
-135.228 49.6585 -807.175
-132.315 122.913 -801.396
-126.769 134.804 -787.047
-130.467 136.689 -790.494
-131.043 153.252 -766.466
-131.937 158.785 -760.463
-134.027 233.627 -753.342
-132.77 239.324 -751.547
-132.77 239.281 -751.047
-132.77 239.229 -748.547
-133.497 229.49 -746.745
-132.458 228.314 -745.269
-132.98 239.007 -741.047
-132.77 239.156 -741.547
-133.27 239.007 -740.813
-133.27 238.943 -740.547
-133.27 238.844 -740.047
-133.27 238.73 -739.547
-132.77 238.603 -739.547
-132.876 238.507 -739.047
-133.268 238.507 -738.547
-132.77 238.408 -738.831
-134.552 189.585 -739.708
-133.648 226.641 -736.506
-131.136 216.878 -734.129
-136.901 146.775 -720.978
-131.206 200.979 -723.635
-132.937 203.006 -719.6
-133.142 223.201 -707.698
-132.27 53.0069 -948.757
-132.27 54.5069 -948.677
-132.313 55.0069 -948.547
-131.417 53.7327 -947.801
-132.693 55.5069 -948.547
-132.77 55.5746 -948.547
-132.515 56.0069 -948.047
-132.77 56.0069 -948.282
-132.604 56.5069 -947.547
-132.652 56.5069 -948.047
-132.27 56.0069 -947.145
-132.381 56.0069 -946.547
-132.27 56.0069 -947.015
-132.248 55.5407 -946.525
-132.639 56.0069 -946.047
-130.181 45.3673 -945.925
-132.729 54.0069 -943.547
-132.627 53.5069 -943.047
-132.647 53.0069 -942.547
-132.618 52.5069 -942.047
-132.622 51.5069 -941.547
-132.602 52.0069 -941.547
-132.597 51.0069 -941.047
-132.599 50.5069 -940.547
-132.196 48.9167 -940.369
-132.631 50.0069 -940.047
-132.417 48.5069 -939.547
-132.27 48.8556 -939.547
-132.666 49.5069 -939.547
-132.27 49.0651 -939.547
-131.78 46.8212 -938.476
-132.372 48.5069 -939.047
-132.27 48.0069 -938.558
-132.617 45.8432 -937.092
-132.495 44.5069 -935.047
-132.527 44.0069 -934.547
-132.53 43.5069 -934.047
-132.4 43.0069 -933.547
-132.409 42.7762 -934.393
-132.307 42.5069 -933.047
-132.27 42.3351 -933.047
-132.177 40.1578 -931.57
-131.78 25.5205 -927.81
-132.863 35.9165 -927.274
-132.56 20.1749 -914.907
-132.27 19.0069 -911.42
-132.338 18.5069 -909.047
-132.27 18.5069 -909.209
-132.483 18.5069 -908.547
-132.27 18.3195 -908.547
-132.27 18.0067 -907.047
-132.27 18.0069 -907.048
-132.82 18.6646 -907.244
-132.876 17.7956 -904.652
-132.328 17.5069 -905.547
-132.27 17.5069 -905.775
-132.399 17.5069 -905.047
-132.492 17.5069 -904.547
-132.27 17.2464 -904.047
-132.569 17.0069 -903.047
-132.27 17.0069 -903.524
-132.27 16.7742 -902.547
-132.398 16.5069 -900.547
-132.27 16.5069 -900.945
-132.341 16.5069 -900.047
-132.424 16.5069 -899.547
-132.547 16.5069 -899.047
-132.734 16.5069 -898.547
-132.539 16.0069 -897.047
-132.501 16.0069 -897.547
-132.522 16.0069 -896.547
-132.621 16.0069 -896.047
-132.77 16.0069 -895.662
-131.554 29.6359 -894.938
-132.27 14.711 -883.047
-132.77 14.7458 -882.547
-130.178 47.027 -816.136
-130.866 126.273 -797.618
-131.792 234.712 -761.882
-133.388 237.785 -753.551
-132.27 239.007 -754.126
-132.299 239.007 -754.047
-132.457 239.007 -753.547
-132.27 239.207 -753.047
-132.27 239.507 -752.715
-132.376 239.507 -752.547
-132.76 239.007 -752.047
-132.582 239.507 -752.047
-133.012 231.262 -750.881
-132.27 239.476 -750.547
-133.323 239.114 -749.823
-132.27 229.921 -749.047
-132.27 239.295 -749.047
-132.27 229.537 -748.547
-132.504 229.507 -748.047
-132.27 229.507 -748.52
-132.409 229.007 -747.547
-132.27 229.007 -747.154
-130.472 98.8631 -742.803
-132.523 239.507 -742.547
-132.27 239.507 -742.901
-132.77 239.507 -742.258
-132.77 239.402 -742.047
-131.386 180.694 -728.863
-131.351 190.115 -728.176
-133.05 189.63 -724.198
-130.884 225.874 -712.365
-133.54 225.171 -707.442
-132.27 53.5069 -948.793
-132.27 54.0069 -948.788
-131.776 49.5023 -947.631
-132.26 56.0069 -947.047
-132.34 52.2677 -943.085
-132.212 49.0069 -939.547
-132.267 48.0069 -938.547
-132.118 47.5069 -938.047
-131.813 47.0069 -937.547
-131.77 46.9624 -937.547
-132.144 42.0069 -932.547
-132.046 41.5069 -932.047
-131.946 41.0069 -931.547
-132.015 41.0069 -931.047
-131.963 40.5069 -930.547
-131.77 40.0265 -930.547
-131.805 40.0069 -930.047
-131.77 39.8673 -930.047
-131.902 38.0069 -928.547
-131.77 38.418 -928.547
-131.81 38.0069 -928.047
-131.77 37.5069 -927.591
-131.77 38.0069 -927.919
-131.607 32.5259 -919.444
-131.855 19.5069 -914.547
-131.77 19.5069 -914.837
-131.993 19.5069 -914.047
-132.238 19.5069 -913.547
-131.77 19.3309 -913.547
-131.77 19.2297 -913.047
-131.994 19.0069 -912.047
-131.77 19.0069 -912.339
-132.223 19.0069 -911.547
-131.77 18.6112 -911.047
-131.77 18.5069 -910.672
-131.77 18.4722 -910.547
-132.135 18.5069 -909.547
-131.939 18.4968 -910.115
-131.77 18.1619 -909.047
-131.813 18.0069 -908.547
-131.77 18.0069 -908.606
-132.012 18.0069 -908.047
-132.084 18.0069 -907.547
-131.946 17.5069 -906.547
-132.179 17.5069 -906.047
-131.77 17.3201 -906.047
-131.77 17.24 -905.547
-131.756 29.2575 -902.278
-132.252 17.0069 -903.547
-132.049 17.0069 -904.047
-131.838 16.5069 -902.047
-131.964 16.5069 -901.547
-132.208 16.5069 -901.047
-132.154 29.3953 -898.056
-132.27 14.6812 -883.547
-131.77 14.665 -883.547
-131.724 15.9737 -869.361
-130.377 57.2138 -839.999
-132.325 29.3726 -836.975
-130.212 43.8431 -819.939
-133.664 153.068 -771.684
-129.223 76.3796 -764.672
-133.022 77.8364 -759.829
-131.811 237.218 -759.734
-131.296 238.93 -756.984
-131.83 239.007 -755.547
-131.77 239.114 -755.547
-131.971 239.007 -755.047
-132.122 239.007 -754.547
-132.078 239.507 -753.047
-132.163 239.507 -750.547
-131.77 239.507 -750.225
-131.77 239.464 -750.047
-129.01 91.9869 -749.213
-131.77 229.808 -749.547
-131.77 239.346 -749.547
-132.082 229.507 -748.047
-131.77 229.809 -748.047
-132.131 229.007 -747.547
-132.141 239.507 -743.047
-131.77 239.507 -743.507
-129.731 171.913 -739.334
-129.614 219.938 -732.656
-133.526 171.987 -727.228
-132.216 132.583 -728.12
-134.96 185.035 -724.093
-129.379 141.13 -727.962
-132.021 229.871 -722.918
-130.563 50.9087 -945.51
-131.599 46.5069 -937.547
-131.27 45.5069 -937.267
-131.27 46.0069 -937.236
-131.568 45.0069 -936.047
-131.27 45.0069 -936.382
-131.27 44.6649 -936.047
-131.676 39.5069 -930.047
-131.761 39.0069 -929.547
-131.663 38.5069 -929.047
-131.753 38.5069 -928.547
-131.745 37.5069 -927.547
-131.537 37.0069 -927.047
-131.598 37.0069 -926.547
-131.393 36.5069 -926.047
-131.27 36.261 -925.547
-131.27 36.5069 -925.741
-131.27 36.0069 -925.404
-131.656 33.6477 -922.486
-132.6 21.8821 -919.434
-131.27 33.1429 -919.047
-131.27 33.0069 -918.868
-131.141 19.9509 -916.947
-131.377 19.5069 -915.547
-131.27 19.5069 -915.659
-131.677 19.5069 -915.047
-131.636 19.0069 -912.547
-131.27 18.1127 -910.047
-131.346 18.0069 -909.547
-131.27 18.0069 -909.687
-131.563 18.0069 -909.047
-132.519 28.2393 -906.859
-131.27 30.0069 -892.753
-132.275 30.3136 -889.855
-131.27 14.5918 -884.047
-130.115 14.6033 -880.399
-131.577 34.9741 -875.159
-133.171 38.8645 -822.953
-132.013 94.6866 -815.704
-127.436 133.218 -789.791
-128.69 146.964 -773.225
-131.27 239.507 -756.165
-131.311 239.507 -756.047
-131.498 239.507 -755.547
-131.776 163.179 -756.831
-131.27 230.904 -753.547
-131.27 230.811 -753.047
-131.27 230.372 -751.047
-131.27 230.507 -751.43
-131.27 230.024 -750.547
-131.695 230.007 -750.047
-131.27 230.007 -750.511
-131.299 230.007 -748.547
-131.27 230.007 -748.598
-131.307 230.007 -748.047
-131.43 239.507 -744.047
-131.27 239.558 -744.547
-131.744 239.507 -743.547
-131.177 238.312 -740.66
-131.829 229.65 -743.582
-132.867 178.655 -740.65
-129.571 230.821 -739.68
-131.73 226.935 -732.656
-130.416 190.551 -733.914
-132.044 234.477 -729.303
-131.904 182.878 -727.359
-131.155 45.5069 -937.047
-131.075 45.0069 -936.547
-131.112 44.5069 -936.047
-131.098 44.0069 -935.547
-131.068 43.5069 -935.047
-130.962 43.0069 -934.547
-131.182 43.0069 -934.047
-131.084 42.5069 -933.547
-130.919 42.0069 -933.047
-130.856 41.5069 -932.547
-130.77 41.4115 -932.547
-131.136 36.0069 -925.047
-130.983 35.5069 -924.547
-130.847 35.5069 -924.047
-130.872 35.0069 -923.547
-130.77 34.9116 -923.047
-130.77 35.0069 -923.231
-130.77 34.5069 -922.665
-130.77 34.2093 -922.047
-130.77 34.0069 -921.802
-130.967 33.5069 -921.047
-130.77 33.8318 -921.047
-130.837 33.5069 -920.547
-130.959 33.5069 -920.047
-131.218 33.0069 -919.547
-131.008 33.0069 -918.547
-131.035 32.5069 -918.047
-130.95 32.5069 -917.547
-130.949 32.0069 -917.047
-130.838 32.0069 -916.547
-130.883 19.5069 -916.047
-130.77 19.5069 -916.157
-131.226 31.5069 -916.047
-130.77 31.8375 -916.047
-130.77 32.0069 -916.415
-130.985 31.5069 -915.547
-130.77 31.5069 -915.094
-131.767 31.0325 -916.01
-131.193 31.0069 -914.547
-130.77 31.3831 -914.547
-130.962 31.0069 -914.047
-130.77 31.0069 -913.703
-132.605 29.1592 -912.496
-130.77 30.5069 -912.339
-130.77 30.2052 -908.547
-130.77 30.0069 -908.216
-130.77 29.7627 -906.047
-130.77 29.5879 -905.547
-130.77 29.6374 -903.047
-130.77 29.6102 -902.547
-130.77 30.0069 -898.255
-130.821 30.0069 -898.047
-130.77 30.0069 -897.886
-130.77 30.0069 -893.418
-131.14 30.0069 -893.047
-130.77 30.1732 -892.547
-130.294 30.3603 -890.076
-130.77 14.5189 -884.547
-132.172 36.8966 -869.856
-131.511 18.3039 -861.452
-131.643 53.6949 -844.471
-129.251 99.2863 -811.007
-130.999 103.495 -810.84
-130.77 239.315 -757.547
-130.77 239.507 -757.383
-130.967 239.507 -757.047
-131.146 239.507 -756.547
-132.36 81.746 -755.821
-131.233 231.282 -756.589
-130.77 230.992 -755.047
-130.77 231.007 -755.466
-130.77 230.982 -754.547
-130.77 230.901 -754.047
-130.77 230.67 -752.547
-130.77 230.554 -752.047
-131.213 230.507 -751.547
-130.77 230.507 -751.981
-130.939 230.007 -749.547
-131.153 230.007 -749.047
-131.121 230.188 -747.793
-130.77 230.293 -749.547
-130.652 96.4532 -744.569
-130.936 239.507 -745.047
-130.77 239.507 -745.372
-136.824 100.283 -738.6
-131.059 185.378 -736.292
-131.27 126.507 -733.697
-131.166 126.507 -733.547
-131.27 126.362 -733.547
-131.27 126.507 -733.445
-128.869 129.079 -732.807
-135.482 166.098 -723.152
-130.637 227.811 -724.617
-129.817 205.424 -718.478
-129.446 42.2262 -944.031
-130.962 43.9068 -936.468
-130.557 41.0069 -932.547
-130.569 41.0069 -932.047
-130.551 40.5069 -931.547
-130.728 40.5069 -931.047
-130.617 40.0069 -930.547
-130.57 39.5069 -930.047
-130.561 39.0069 -929.547
-130.517 38.5069 -929.047
-130.485 38.0069 -928.547
-130.235 38.6395 -930.155
-130.477 37.5069 -928.047
-130.571 37.5069 -927.547
-130.27 37.0069 -927.165
-130.647 36.5069 -926.047
-130.27 36.5069 -926.361
-130.27 36.2214 -926.047
-130.696 34.5069 -922.547
-130.67 34.0069 -921.547
-130.27 20.3212 -918.547
-130.27 20.5069 -918.944
-130.27 19.9046 -917.547
-130.27 20.0069 -917.769
-130.27 19.5069 -916.508
-130.685 32.0069 -916.047
-130.745 31.5069 -915.047
-130.677 31.0069 -913.547
-130.324 31.0069 -913.047
-130.27 31.0069 -912.947
-130.27 30.8692 -912.547
-130.69 30.5069 -912.047
-130.656 30.5069 -911.547
-130.673 30.5069 -911.047
-130.603 30.5069 -910.547
-130.573 30.5069 -910.047
-130.566 30.5069 -909.547
-130.614 30.5069 -909.047
-130.722 30.0069 -908.047
-130.615 30.0069 -907.547
-130.557 30.0069 -907.047
-130.512 30.0069 -906.547
-130.27 29.7308 -905.047
-130.27 29.7326 -904.547
-130.27 29.7387 -904.047
-130.27 29.723 -903.547
-130.27 29.6842 -902.047
-130.27 29.7346 -901.547
-130.27 30.0069 -899.586
-130.286 30.0069 -899.547
-130.507 30.0069 -899.047
-130.702 30.0069 -898.547
-130.689 30.0069 -897.547
-130.594 30.0069 -897.047
-130.596 30.0069 -896.547
-130.346 30.0069 -896.047
-130.391 30.0069 -895.547
-130.324 30.0069 -895.047
-130.27 30.0069 -894.722
-130.27 29.9869 -894.547
-130.27 30.0069 -894.482
-130.553 30.0069 -894.047
-130.662 30.0069 -893.547
-130.27 30.1882 -892.547
-129.678 32.156 -883.491
-130.532 14.5069 -884.047
-130.669 14.5069 -884.547
-130.27 14.4804 -884.047
-129.802 68.3762 -830.168
-127.132 88.4188 -813.641
-132.945 99.0937 -814.009
-128.558 131.738 -791.189
-130.601 70.0327 -775.745
-130.28 232.465 -764.983
-130.27 239.007 -759.417
-130.387 239.007 -759.047
-130.594 239.007 -758.547
-130.755 239.007 -758.047
-130.641 231.007 -756.047
-130.27 230.953 -756.047
-130.754 231.007 -755.547
-130.552 230.507 -751.547
-130.27 230.742 -751.547
-130.575 230.507 -751.047
-130.607 230.507 -750.547
-130.642 230.507 -750.047
-130.632 230.507 -749.547
-130.432 239.507 -746.047
-130.27 239.507 -746.39
-130.678 239.507 -745.547
-127.974 111.861 -738.278
-130.657 175.084 -737.325
-131.67 208.416 -735.197
-131.209 175.175 -731.646
-130.634 178.23 -734.335
-130.722 185.409 -729.756
-131.177 200.192 -734.858
-130.141 194.968 -730.609
-130.191 224.085 -712.184
-129.32 37.9554 -941.583
-129.091 34.9875 -939.236
-130.224 37.0069 -927.047
-130.084 36.5069 -926.547
-129.77 36.0069 -925.76
-130.725 21.0939 -919.86
-129.77 21.0069 -920.032
-129.937 20.5069 -919.047
-129.77 20.5069 -919.095
-129.77 20.0112 -918.047
-129.77 20.0069 -918.041
-129.989 32.5069 -917.547
-129.77 32.5069 -917.664
-129.77 32.4007 -917.547
-129.77 19.7041 -917.047
-130.209 19.5069 -916.547
-129.77 19.5069 -916.721
-130.002 31.0069 -912.547
-129.77 29.8599 -903.547
-129.77 29.9298 -901.047
-129.77 30.0069 -900.797
-129.932 30.0069 -900.547
-130.041 30.0069 -900.047
-129.804 30.0069 -896.047
-129.77 30.0069 -896.057
-129.997 30.0069 -895.547
-130.119 30.0069 -895.047
-130.048 30.0069 -894.047
-129.77 30.0069 -893.79
-129.77 30.0606 -892.047
-129.77 14.4457 -884.547
-129.213 20.6404 -858.917
-130.732 44.0786 -855.088
-130.489 49.321 -812.553
-129.941 52.1904 -809.988
-128.753 130.035 -793.823
-132.3 138.826 -789.427
-129.165 145.016 -777.138
-129.477 235.433 -768.839
-130.669 237.847 -761.87
-129.77 239.007 -761.311
-129.905 239.007 -761.047
-130.039 239.007 -760.547
-129.843 231.361 -759.526
-130.165 239.007 -760.047
-130.228 239.007 -759.547
-129.77 231.002 -756.547
-129.77 230.955 -756.047
-129.97 231.007 -753.047
-130.049 231.007 -752.547
-129.77 231.23 -753.047
-129.871 231.007 -752.047
-129.834 231.007 -751.547
-129.32 231.58 -745.059
-129.807 239.507 -747.547
-129.77 239.507 -747.644
-130.001 239.507 -747.047
-130.203 239.507 -746.547
-129.321 236.2 -740.649
-130.743 231.542 -734.047
-129.712 203.237 -731.025
-130.324 201.193 -727.214
-130.757 210.911 -713.989
-129.004 45.9833 -942.588
-128.304 31.292 -935.691
-130.288 40.8593 -932.993
-129.27 24.8072 -927.047
-129.423 23.8647 -925.206
-130.036 36.53 -927.388
-129.739 36.0069 -925.547
-129.401 35.5069 -925.047
-129.553 35.5069 -924.547
-129.476 35.0069 -924.047
-129.27 34.7159 -924.047
-129.351 34.5069 -923.047
-129.27 34.5069 -923.269
-129.596 22.2657 -922.094
-129.348 34.0069 -922.547
-129.27 34.0069 -922.407
-129.27 21.5069 -921.052
-129.27 21.5038 -921.047
-129.719 21.0069 -920.047
-129.27 21.0069 -920.177
-129.27 20.7063 -919.547
-129.545 33.0069 -919.547
-129.27 33.0069 -919.934
-129.27 20.5069 -919.203
-129.656 33.0069 -919.047
-129.331 32.5069 -918.547
-129.27 32.5069 -918.395
-129.27 32.5069 -917.927
-129.27 32.1753 -917.547
-129.628 30.0069 -901.047
-129.306 30.0069 -897.547
-129.27 30.0069 -897.685
-129.468 30.0069 -897.047
-129.025 29.4373 -898.164
-129.499 30.0069 -896.547
-129.475 29.908 -895.727
-129.27 30.0069 -894.395
-129.39 30.0069 -894.047
-129.343 30.0069 -893.047
-129.27 30.0069 -893.394
-129.428 30.0069 -892.547
-128.182 29.0689 -891.226
-129.27 14.2843 -887.047
-129.77 14.3172 -886.547
-129.77 14.3393 -886.047
-129.77 14.3755 -885.547
-129.77 14.4128 -885.047
-127.776 15.6531 -879.353
-127.876 31.8649 -874.656
-129.315 16.5069 -876.547
-129.27 16.5069 -876.603
-129.262 16.4994 -876.528
-129.27 16.5386 -876.547
-131.113 39.8236 -862.674
-127.97 62.1726 -830.896
-130.089 38.4407 -827.155
-128.311 124.916 -796.492
-129.27 238.528 -763.547
-129.27 238.757 -763.047
-129.27 238.996 -762.547
-129.27 239.007 -762.521
-129.465 239.007 -762.047
-129.658 239.007 -761.547
-126.689 148.423 -762.522
-127.397 83.9756 -758.534
-129.27 231.007 -756.681
-129.27 231.361 -753.047
-124.48 92.3748 -753.25
-129.428 239.507 -748.547
-129.27 239.507 -748.988
-129.616 239.507 -748.047
-129.095 238.653 -745.239
-128.716 233.81 -744.04
-128.872 132.544 -731.757
-129.516 207.327 -731.421
-130.12 137.11 -729.418
-130.876 226.624 -730.099
-129.97 145.659 -725.251
-130.4 218.224 -713.976
-128.446 26.3084 -929.732
-128.77 25.0069 -927.505
-128.77 24.5219 -926.547
-128.77 24.2339 -926.047
-128.77 24.5069 -926.524
-128.77 23.8799 -925.547
-128.77 24.0069 -925.742
-128.77 23.3799 -924.547
-128.77 22.9234 -923.547
-128.77 23.0069 -923.683
-129.155 34.5069 -923.547
-128.425 34.2531 -923.736
-128.77 22.5069 -922.831
-129.129 34.0069 -922.047
-128.77 21.7306 -921.547
-128.77 22.0069 -921.986
-128.851 33.5069 -921.547
-128.77 21.5069 -921.194
-129.092 33.5069 -921.047
-128.77 21.192 -920.547
-129.209 33.5069 -920.547
-128.77 21.0069 -920.285
-129.166 33.0069 -920.047
-129.349 32.6906 -919.415
-128.788 20.5069 -919.547
-129.177 32.5069 -918.047
-129.013 32.0069 -917.547
-129.129 32.0069 -917.047
-128.649 31.8804 -918.053
-129.253 32.0069 -916.547
-128.816 31.5069 -916.047
-128.931 31.5069 -915.547
-128.77 31.277 -915.547
-128.807 30.5069 -911.047
-128.77 30.5069 -911.4
-126.903 29.4403 -911.701
-128.77 30.5069 -910.978
-128.797 30.0069 -908.047
-128.77 30.0069 -908.111
-129.014 30.0069 -907.547
-128.77 30.0069 -907.341
-128.856 29.5069 -906.547
-128.77 29.5069 -906.729
-128.261 29.3711 -907.111
-128.77 29.5069 -906.282
-128.778 29.5069 -903.047
-128.77 29.5069 -903.085
-128.911 29.5069 -902.547
-127.698 28.7721 -901.703
-129.039 29.5069 -902.047
-128.981 29.5069 -901.547
-128.856 29.5069 -901.047
-128.819 29.5069 -900.547
-129.034 30.0069 -900.047
-128.886 29.5069 -899.547
-128.997 30.0069 -899.047
-129.023 30.0069 -898.547
-129.201 30.0069 -898.047
-126.94 28.0386 -895.73
-129.155 30.0069 -894.047
-129.235 30.0069 -893.547
-128.866 14.0069 -887.547
-128.77 13.9245 -887.547
-129.27 14.2777 -887.547
-128.984 34.134 -867.305
-129.272 36.1114 -832.081
-128.15 71.6326 -823.597
-131.85 52.5686 -805.892
-128.911 116.774 -802.338
-127.322 65.7192 -794.388
-126.187 140.366 -777.989
-127.267 231.899 -778.843
-129.47 237.491 -765.358
-128.77 238.507 -764.57
-128.784 238.507 -764.547
-129.041 238.507 -764.047
-129.261 239.007 -762.547
-128.874 231.23 -762.047
-128.77 230.939 -760.547
-128.77 231.007 -761.034
-128.77 230.953 -760.047
-128.77 230.987 -759.547
-128.77 230.934 -759.047
-128.77 231.007 -758.83
-128.77 231.123 -758.547
-128.77 231.053 -758.047
-128.998 231.007 -757.547
-128.77 231.007 -757.751
-128.877 231.007 -757.047
-128.917 231.507 -755.547
-128.77 231.507 -755.82
-128.77 231.507 -755.295
-131.452 86.6945 -752.464
-128.77 231.365 -753.547
-128.863 240.007 -752.547
-128.77 240.007 -752.85
-128.126 239.334 -751.555
-129.031 240.007 -752.047
-129.168 240.007 -751.547
-129.27 240.007 -751.191
-129.27 239.975 -751.047
-128.77 239.548 -750.547
-128.887 239.507 -750.047
-129.067 239.507 -749.547
-128.817 231.447 -750.727
-129.249 239.507 -749.047
-128.088 238.696 -748.56
-124.943 95.8899 -750.02
-126.422 100.794 -745.905
-131.31 119.651 -734.04
-127.897 213.102 -730.953
-128.488 206.376 -727.051
-129.628 226.553 -720.22
-127.576 208.839 -721.516
-129.349 221.583 -716.699
-128.008 38.3823 -940.932
-128.032 41.9261 -939.713
-128.543 25.0069 -927.547
-128.27 25.0069 -927.597
-128.85 35.2377 -925.509
-128.27 23.638 -925.047
-128.27 23.5069 -924.879
-128.342 23.0069 -924.047
-128.422 22.5069 -923.047
-128.27 22.2055 -922.547
-128.648 22.0069 -922.047
-128.27 22.0069 -922.213
-126.864 32.0193 -921.78
-128.563 21.0069 -920.547
-127.748 31.0748 -916.64
-128.402 31.0069 -915.047
-128.464 31.0069 -914.547
-127.358 30.3926 -914.854
-128.715 31.0069 -914.047
-128.27 30.7318 -914.047
-128.345 30.5069 -913.047
-128.27 30.5069 -913.242
-128.756 30.5069 -912.547
-128.635 30.5069 -912.047
-128.753 30.5069 -911.547
-128.461 30.5069 -910.547
-128.27 30.3323 -910.547
-128.357 30.0069 -908.547
-128.27 30.0069 -908.697
-128.52 30.0069 -907.047
-128.659 29.5069 -906.047
-128.567 29.5069 -905.547
-128.492 29.5069 -905.047
-128.553 29.5069 -904.547
-128.566 29.5069 -904.047
-128.667 29.5069 -903.547
-128.27 13.5069 -887.699
-128.77 13.5069 -887.797
-128.063 14.7331 -889.64
-128.804 14.2836 -885.482
-126.297 32.3885 -858.662
-129.756 27.7032 -844.036
-128.808 58.4796 -834.888
-128.281 42.8808 -825.875
-128.59 94.2557 -812.22
-129.375 109.598 -807.021
-130.089 56.5656 -802.525
-129.921 67.1535 -785.205
-128.375 69.7694 -781.45
-128.172 70.4493 -777.854
-127.245 236.867 -771.193
-129.599 73.1936 -769.011
-128.27 238.007 -766.808
-128.387 238.007 -766.547
-128.27 238.281 -766.047
-128.27 238.456 -765.547
-128.27 238.507 -765.449
-128.506 238.507 -765.047
-128.468 231.007 -761.547
-128.27 230.955 -761.547
-128.764 231.007 -761.047
-127.562 87.1946 -754.486
-128.437 231.507 -756.547
-128.27 231.507 -756.889
-128.629 231.507 -756.047
-128.671 231.507 -755.047
-127.381 232.064 -754.259
-128.738 231.507 -754.547
-128.603 231.507 -754.047
-128.4 240.007 -754.047
-128.27 240.007 -754.421
-128.27 239.929 -754.047
-128.567 240.007 -753.547
-128.27 239.823 -753.547
-128.716 240.007 -753.047
-128.432 169.447 -745.558
-128.962 102.757 -741.841
-127.491 116.48 -737.108
-127.315 38.8722 -936.121
-126.248 33.2649 -926.967
-127.77 25.0069 -927.712
-127.77 22.3377 -923.047
-127.77 22.0069 -922.281
-127.778 30.5069 -914.047
-128.158 30.5069 -913.547
-127.81 30.0069 -910.547
-127.851 30.0069 -910.047
-127.961 30.0069 -909.547
-128.144 30.0069 -909.047
-125.25 18.1061 -891.874
-128.024 13.5069 -888.547
-127.77 13.5069 -888.833
-128.005 13.5069 -888.047
-127.252 15.47 -884.078
-127.613 15.2494 -882.527
-129.716 25.0357 -848.898
-128.696 42.9271 -851.528
-128.957 48.9512 -843.511
-126.852 56.4587 -831.337
-128.03 68.131 -825.69
-126.982 49.09 -822.159
